ncols	378
nrows	32
xllcorner	296925
yllcorner	131845
cellsize	5.00
NODATA_value	-9999.00
-14.77 -14.71 -14.68 -14.65 -14.64 -14.64 -14.59 -14.61 -14.60 -14.57 -14.56 -14.57 -14.58 -14.60 -14.57 -14.65 -14.54 -14.47 -14.36 -14.34 -14.29 -14.27 -14.33 -14.33 -14.24 -14.13 -14.03 -13.95 -13.90 -13.80 -13.73 -13.62 -13.49 -13.36 -13.31 -13.25 -13.23 -13.23 -13.24 -13.26 -13.28 -13.29 -13.28 -13.35 -13.40 -13.42 -13.39 -13.30 -13.22 -13.17 -13.10 -13.07 -12.99 -12.87 -12.73 -12.59 -12.48 -12.39 -12.25 -12.12 -11.98 -11.85 -11.69 -11.51 -11.34 -11.16 -10.98 -10.81 -10.64 -10.58 -10.62 -10.66 -10.70 -10.74 -10.77 -10.81 -10.85 -10.82 -10.76 -10.75 -10.73 -10.70 -10.68 -10.65 -10.67 -10.69 -10.69 -10.67 -10.65 -10.57 -10.54 -10.52 -10.49 -10.42 -10.36 -10.30 -10.29 -10.24 -10.14 -10.08 -10.05 -10.07 -10.09 -10.13 -10.17 -10.19 -10.22 -10.23 -10.24 -10.25 -10.25 -10.26 -10.27 -10.27 -10.27 -10.28 -10.31 -10.34 -10.37 -10.40 -10.43 -10.46 -10.49 -10.51 -10.52 -10.50 -10.48 -10.45 -10.43 -10.41 -10.40 -10.38 -10.38 -10.39 -10.41 -10.44 -10.46 -10.48 -10.49 -10.50 -10.51 -10.53 -10.51 -10.51 -10.52 -10.54 -10.56 -10.56 -10.60 -10.66 -10.71 -10.73 -10.76 -10.77 -10.78 -10.81 -10.78 -10.75 -10.71 -10.68 -10.65 -10.60 -10.54 -10.50 -10.51 -10.51 -10.54 -10.50 -10.50 -10.50 -10.49 -10.45 -10.50 -10.56 -10.58 -10.58 -10.57 -10.51 -10.57 -10.56 -10.57 -10.57 -10.58 -10.59 -10.58 -10.58 -10.55 -10.55 -10.59 -10.55 -10.59 -10.61 -10.61 -10.62 -10.65 -10.65 -10.65 -10.68 -10.69 -10.69 -10.70 -10.66 -10.69 -10.68 -10.65 -10.60 -10.60 -10.60 -10.57 -10.56 -10.55 -10.54 -10.53 -10.52 -10.49 -10.47 -10.42 -10.44 -10.45 -10.47 -10.45 -10.45 -10.45 -10.45 -10.43 -10.44 -10.42 -10.43 -10.41 -10.43 -10.39 -10.40 -10.37 -10.41 -10.38 -10.37 -10.39 -10.38 -10.34 -10.34 -10.30 -10.32 -10.33 -10.32 -10.31 -10.28 -10.28 -10.30 -10.28 -10.28 -10.23 -10.25 -10.21 -10.16 -10.20 -10.19 -10.19 -10.20 -10.20 -10.19 -10.20 -10.19 -10.17 -10.15 -10.15 -10.16 -10.14 -10.11 -10.10 -10.10 -10.10 -10.12 -10.10 -10.08 -10.08 -10.10 -10.14 -10.13 -10.11 -10.06 -10.07 -10.07 -10.01 -10.03 -10.02 -10.06 -10.03 -10.02 -9.99 -10.00 -9.99 -9.98 -9.99 -10.02 -9.99 -9.96 -9.97 -9.96 -9.94 -9.95 -9.95 -9.97 -9.96 -9.96 -9.96 -9.94 -9.95 -9.98 -9.96 -9.94 -9.95 -9.94 -9.93 -9.96 -9.95 -9.92 -9.95 -9.98 -9.97 -9.95 -9.95 -9.97 -9.94 -9.94 -9.96 -9.95 -9.94 -9.95 -9.94 -9.92 -9.90 -9.88 -9999.00 -9999.00 -9999.00 -9999.00 -9999.00 -9999.00 -9999.00 -9999.00 -9999.00 -9999.00 -9999.00 -9999.00 -9999.00 -9999.00 -9999.00 -9999.00 -9999.00 -9999.00 -9999.00 -9999.00 -9999.00 -9999.00 -9999.00 -9999.00 -9999.00 -9999.00 -9999.00 -9999.00 -9999.00 -9999.00 -9999.00 -9999.00 -9999.00 -9999.00 -9999.00 -9999.00 -9999.00 -9999.00 -9999.00 -9999.00 -9999.00 -9999.00 -9999.00 -9999.00 -9999.00 -9999.00
-14.68 -14.69 -14.61 -14.64 -14.60 -14.61 -14.56 -14.57 -14.58 -14.57 -14.57 -14.60 -14.63 -14.61 -14.57 -14.52 -14.46 -14.43 -14.39 -14.36 -14.35 -14.35 -14.30 -14.26 -14.18 -14.08 -14.00 -13.96 -13.91 -13.81 -13.71 -13.61 -13.51 -13.45 -13.39 -13.32 -13.30 -13.30 -13.28 -13.27 -13.30 -13.28 -13.24 -13.26 -13.29 -13.28 -13.22 -13.16 -13.11 -13.04 -13.00 -12.94 -12.87 -12.76 -12.64 -12.53 -12.39 -12.19 -12.08 -11.98 -11.88 -11.76 -11.62 -11.46 -11.30 -11.13 -10.97 -10.81 -10.69 -10.73 -10.76 -10.79 -10.78 -10.75 -10.68 -10.66 -10.65 -10.66 -10.71 -10.70 -10.72 -10.72 -10.70 -10.71 -10.74 -10.73 -10.64 -10.64 -10.64 -10.60 -10.53 -10.49 -10.47 -10.42 -10.33 -10.29 -10.21 -10.18 -10.18 -10.11 -10.04 -10.07 -10.11 -10.19 -10.26 -10.32 -10.37 -10.35 -10.33 -10.30 -10.27 -10.24 -10.22 -10.20 -10.20 -10.19 -10.21 -10.23 -10.26 -10.29 -10.30 -10.32 -10.36 -10.39 -10.39 -10.39 -10.39 -10.39 -10.36 -10.34 -10.32 -10.32 -10.34 -10.34 -10.36 -10.37 -10.37 -10.36 -10.36 -10.38 -10.44 -10.47 -10.49 -10.49 -10.53 -10.55 -10.56 -10.56 -10.54 -10.55 -10.58 -10.61 -10.62 -10.63 -10.68 -10.76 -10.76 -10.74 -10.69 -10.65 -10.60 -10.52 -10.50 -10.50 -10.48 -10.47 -10.48 -10.46 -10.48 -10.49 -10.52 -10.51 -10.52 -10.51 -10.52 -10.51 -10.56 -10.56 -10.55 -10.52 -10.47 -10.50 -10.51 -10.53 -10.56 -10.53 -10.54 -10.52 -10.51 -10.50 -10.51 -10.56 -10.58 -10.57 -10.60 -10.61 -10.61 -10.62 -10.65 -10.67 -10.67 -10.66 -10.63 -10.62 -10.61 -10.60 -10.58 -10.56 -10.56 -10.56 -10.56 -10.50 -10.50 -10.51 -10.51 -10.47 -10.46 -10.41 -10.41 -10.40 -10.42 -10.41 -10.39 -10.38 -10.40 -10.40 -10.39 -10.36 -10.38 -10.35 -10.36 -10.37 -10.35 -10.36 -10.36 -10.33 -10.34 -10.33 -10.32 -10.31 -10.27 -10.28 -10.24 -10.24 -10.26 -10.27 -10.24 -10.23 -10.19 -10.23 -10.20 -10.21 -10.17 -10.18 -10.14 -10.10 -10.14 -10.12 -10.14 -10.15 -10.14 -10.13 -10.14 -10.11 -10.09 -10.10 -10.10 -10.08 -10.08 -10.06 -10.04 -10.03 -10.02 -10.04 -10.04 -10.03 -10.03 -10.06 -10.09 -10.07 -10.04 -10.01 -10.02 -10.01 -9.97 -9.98 -9.95 -10.00 -9.98 -9.98 -9.94 -9.93 -9.93 -9.94 -9.95 -9.96 -9.95 -9.90 -9.94 -9.94 -9.92 -9.91 -9.90 -9.93 -9.91 -9.91 -9.92 -9.90 -9.91 -9.93 -9.94 -9.91 -9.91 -9.92 -9.89 -9.91 -9.90 -9.86 -9.92 -9.95 -9.92 -9.92 -9.91 -9.90 -9.87 -9.91 -9.91 -9.91 -9.87 -9.88 -9.89 -9.88 -9.86 -9.81 -9999.00 -9999.00 -9999.00 -9999.00 -9999.00 -9999.00 -9999.00 -9999.00 -9999.00 -9999.00 -9999.00 -9999.00 -9999.00 -9999.00 -9999.00 -9999.00 -9999.00 -9999.00 -9999.00 -9999.00 -9999.00 -9999.00 -9999.00 -9999.00 -9999.00 -9999.00 -9999.00 -9999.00 -9999.00 -9999.00 -9999.00 -9999.00 -9999.00 -9999.00 -9999.00 -9999.00 -9999.00 -9999.00 -9999.00 -9999.00 -9999.00 -9999.00 -9999.00 -9999.00
-14.65 -14.58 -14.59 -14.58 -14.53 -14.58 -14.56 -14.56 -14.55 -14.60 -14.58 -14.56 -14.55 -14.55 -14.53 -14.45 -14.41 -14.43 -14.40 -14.35 -14.33 -14.30 -14.24 -14.16 -14.10 -14.03 -13.96 -13.93 -13.90 -13.81 -13.69 -13.59 -13.51 -13.47 -13.43 -13.40 -13.33 -13.32 -13.31 -13.23 -13.26 -13.24 -13.19 -13.19 -13.19 -13.20 -13.20 -13.12 -13.03 -12.94 -12.88 -12.85 -12.88 -12.66 -12.41 -12.25 -12.07 -11.91 -11.83 -11.76 -11.69 -11.61 -11.47 -11.35 -11.22 -11.09 -10.97 -10.86 -10.74 -10.65 -10.64 -10.63 -10.67 -10.70 -10.68 -10.72 -10.66 -10.64 -10.65 -10.71 -10.67 -10.69 -10.71 -10.67 -10.69 -10.66 -10.62 -10.61 -10.56 -10.52 -10.48 -10.49 -10.44 -10.37 -10.32 -10.26 -10.19 -10.11 -10.05 -9.99 -9.99 -10.04 -10.11 -10.18 -10.23 -10.27 -10.31 -10.31 -10.29 -10.27 -10.26 -10.24 -10.22 -10.20 -10.19 -10.19 -10.20 -10.22 -10.22 -10.23 -10.26 -10.28 -10.31 -10.35 -10.37 -10.38 -10.39 -10.38 -10.39 -10.39 -10.40 -10.38 -10.38 -10.38 -10.39 -10.39 -10.37 -10.36 -10.38 -10.41 -10.40 -10.37 -10.37 -10.37 -10.40 -10.46 -10.48 -10.51 -10.54 -10.55 -10.57 -10.61 -10.63 -10.62 -10.63 -10.65 -10.66 -10.64 -10.59 -10.55 -10.53 -10.51 -10.49 -10.47 -10.45 -10.43 -10.39 -10.36 -10.41 -10.39 -10.42 -10.45 -10.48 -10.49 -10.50 -10.47 -10.51 -10.51 -10.52 -10.50 -10.50 -10.48 -10.46 -10.42 -10.43 -10.44 -10.44 -10.45 -10.42 -10.42 -10.47 -10.49 -10.50 -10.53 -10.57 -10.58 -10.58 -10.61 -10.64 -10.62 -10.60 -10.59 -10.60 -10.56 -10.57 -10.56 -10.56 -10.55 -10.53 -10.51 -10.51 -10.51 -10.52 -10.51 -10.45 -10.50 -10.46 -10.45 -10.40 -10.40 -10.39 -10.39 -10.39 -10.37 -10.36 -10.34 -10.33 -10.35 -10.35 -10.33 -10.34 -10.28 -10.34 -10.32 -10.32 -10.30 -10.31 -10.30 -10.29 -10.28 -10.27 -10.25 -10.20 -10.21 -10.19 -10.18 -10.19 -10.20 -10.19 -10.18 -10.13 -10.14 -10.12 -10.14 -10.12 -10.11 -10.09 -10.09 -10.08 -10.09 -10.10 -10.09 -10.08 -10.08 -10.08 -10.07 -10.03 -10.01 -10.02 -10.01 -10.01 -9.98 -9.96 -9.96 -9.96 -9.98 -9.99 -9.99 -9.99 -10.01 -10.02 -10.01 -9.97 -9.94 -9.95 -9.95 -9.93 -9.95 -9.88 -9.95 -9.93 -9.94 -9.91 -9.90 -9.90 -9.92 -9.89 -9.91 -9.89 -9.87 -9.88 -9.86 -9.87 -9.86 -9.88 -9.89 -9.87 -9.87 -9.88 -9.87 -9.87 -9.89 -9.89 -9.85 -9.86 -9.83 -9.84 -9.86 -9.85 -9.85 -9.85 -9.87 -9.88 -9.88 -9.87 -9.85 -9.83 -9.83 -9.84 -9.83 -9.80 -9.81 -9.81 -9.82 -9.79 -9999.00 -9999.00 -9999.00 -9999.00 -9999.00 -9999.00 -9999.00 -9999.00 -9999.00 -9999.00 -9999.00 -9999.00 -9999.00 -9999.00 -9999.00 -9999.00 -9999.00 -9999.00 -9999.00 -9999.00 -9999.00 -9999.00 -9999.00 -9999.00 -9999.00 -9999.00 -9999.00 -9999.00 -9999.00 -9999.00 -9999.00 -9999.00 -9999.00 -9999.00 -9999.00 -9999.00 -9999.00 -9999.00 -9999.00 -9999.00 -9999.00 -9999.00 -9999.00
-14.58 -14.55 -14.45 -14.51 -14.52 -14.52 -14.51 -14.58 -14.55 -14.53 -14.56 -14.55 -14.52 -14.44 -14.39 -14.38 -14.36 -14.33 -14.36 -14.35 -14.28 -14.17 -14.11 -14.05 -14.00 -13.95 -13.89 -13.83 -13.80 -13.69 -13.64 -13.54 -13.45 -13.37 -13.32 -13.29 -13.21 -13.21 -13.26 -13.23 -13.18 -13.18 -13.17 -13.19 -13.17 -13.15 -13.17 -13.08 -12.98 -12.87 -12.80 -12.66 -12.58 -12.45 -12.27 -12.10 -11.91 -11.79 -11.69 -11.59 -11.48 -11.40 -11.33 -11.22 -11.11 -11.00 -10.89 -10.76 -10.75 -10.67 -10.64 -10.69 -10.65 -10.63 -10.66 -10.70 -10.70 -10.55 -10.62 -10.62 -10.62 -10.63 -10.62 -10.62 -10.58 -10.56 -10.60 -10.61 -10.57 -10.53 -10.48 -10.45 -10.38 -10.31 -10.27 -10.20 -10.14 -10.08 -10.02 -9.96 -9.94 -10.00 -10.06 -10.12 -10.18 -10.24 -10.29 -10.29 -10.26 -10.23 -10.20 -10.16 -10.13 -10.10 -10.07 -10.08 -10.10 -10.12 -10.14 -10.17 -10.19 -10.22 -10.24 -10.27 -10.28 -10.29 -10.30 -10.30 -10.31 -10.33 -10.34 -10.35 -10.35 -10.35 -10.36 -10.36 -10.36 -10.36 -10.36 -10.36 -10.35 -10.36 -10.35 -10.34 -10.34 -10.35 -10.35 -10.36 -10.39 -10.42 -10.46 -10.50 -10.52 -10.55 -10.59 -10.56 -10.58 -10.57 -10.54 -10.48 -10.45 -10.47 -10.44 -10.41 -10.38 -10.36 -10.32 -10.29 -10.28 -10.29 -10.33 -10.36 -10.42 -10.43 -10.45 -10.48 -10.50 -10.47 -10.46 -10.43 -10.45 -10.45 -10.44 -10.45 -10.41 -10.39 -10.34 -10.37 -10.39 -10.37 -10.40 -10.41 -10.44 -10.49 -10.50 -10.50 -10.55 -10.60 -10.58 -10.61 -10.57 -10.58 -10.57 -10.54 -10.52 -10.52 -10.48 -10.49 -10.49 -10.49 -10.49 -10.47 -10.47 -10.48 -10.48 -10.47 -10.42 -10.40 -10.39 -10.40 -10.39 -10.34 -10.35 -10.35 -10.34 -10.34 -10.33 -10.33 -10.31 -10.29 -10.31 -10.30 -10.24 -10.27 -10.29 -10.27 -10.28 -10.25 -10.28 -10.24 -10.24 -10.22 -10.22 -10.19 -10.14 -10.15 -10.15 -10.11 -10.11 -10.13 -10.13 -10.11 -10.09 -10.06 -10.05 -10.07 -10.07 -10.06 -10.05 -10.05 -10.02 -10.02 -10.02 -10.04 -10.03 -10.02 -10.02 -10.01 -9.98 -9.96 -9.96 -9.94 -9.94 -9.93 -9.90 -9.90 -9.91 -9.93 -9.94 -9.93 -9.94 -9.96 -9.96 -9.93 -9.91 -9.89 -9.89 -9.89 -9.89 -9.91 -9.83 -9.89 -9.88 -9.89 -9.86 -9.87 -9.87 -9.87 -9.85 -9.85 -9.84 -9.84 -9.83 -9.82 -9.84 -9.82 -9.86 -9.86 -9.80 -9.82 -9.84 -9.83 -9.82 -9.84 -9.81 -9.81 -9.80 -9.81 -9.81 -9.80 -9.81 -9.79 -9.80 -9.82 -9.84 -9.81 -9.79 -9.77 -9.78 -9.73 -9.77 -9.75 -9.73 -9.75 -9.74 -9.75 -9.72 -9999.00 -9999.00 -9999.00 -9999.00 -9999.00 -9999.00 -9999.00 -9999.00 -9999.00 -9999.00 -9999.00 -9999.00 -9999.00 -9999.00 -9999.00 -9999.00 -9999.00 -9999.00 -9999.00 -9999.00 -9999.00 -9999.00 -9999.00 -9999.00 -9999.00 -9999.00 -9999.00 -9999.00 -9999.00 -9999.00 -9999.00 -9999.00 -9999.00 -9999.00 -9999.00 -9999.00 -9999.00 -9999.00 -9999.00 -9999.00 -9999.00
-14.50 -14.47 -14.48 -14.46 -14.43 -14.50 -14.52 -14.51 -14.54 -14.50 -14.48 -14.45 -14.39 -14.32 -14.31 -14.25 -14.31 -14.32 -14.33 -14.28 -14.19 -14.07 -13.98 -13.92 -13.85 -13.84 -13.78 -13.74 -13.70 -13.62 -13.45 -13.35 -13.31 -13.25 -13.19 -13.18 -13.23 -13.24 -13.18 -13.18 -13.17 -13.18 -13.17 -13.10 -13.11 -13.07 -13.02 -12.97 -12.86 -12.73 -12.60 -12.49 -12.38 -12.22 -12.02 -11.90 -11.81 -11.71 -11.63 -11.52 -11.46 -11.38 -11.28 -11.17 -11.01 -10.94 -10.87 -10.77 -10.71 -10.65 -10.71 -10.70 -10.77 -10.66 -10.61 -10.63 -10.62 -10.60 -10.60 -10.60 -10.61 -10.62 -10.62 -10.62 -10.60 -10.61 -10.57 -10.53 -10.51 -10.49 -10.47 -10.43 -10.36 -10.30 -10.24 -10.18 -10.14 -10.07 -10.01 -9.96 -9.91 -9.97 -10.01 -10.06 -10.10 -10.14 -10.20 -10.20 -10.17 -10.15 -10.12 -10.09 -10.07 -10.04 -10.01 -10.01 -10.03 -10.05 -10.07 -10.09 -10.12 -10.15 -10.18 -10.20 -10.22 -10.21 -10.21 -10.21 -10.21 -10.21 -10.20 -10.20 -10.19 -10.18 -10.17 -10.17 -10.16 -10.15 -10.15 -10.16 -10.21 -10.23 -10.25 -10.25 -10.25 -10.26 -10.26 -10.27 -10.32 -10.33 -10.33 -10.34 -10.35 -10.35 -10.43 -10.44 -10.44 -10.43 -10.43 -10.47 -10.44 -10.44 -10.40 -10.33 -10.30 -10.25 -10.28 -10.24 -10.21 -10.17 -10.19 -10.29 -10.33 -10.40 -10.43 -10.46 -10.48 -10.45 -10.43 -10.43 -10.43 -10.43 -10.40 -10.37 -10.37 -10.35 -10.35 -10.33 -10.29 -10.28 -10.33 -10.38 -10.40 -10.42 -10.45 -10.47 -10.52 -10.51 -10.50 -10.55 -10.58 -10.56 -10.51 -10.50 -10.49 -10.48 -10.46 -10.45 -10.45 -10.42 -10.43 -10.42 -10.44 -10.42 -10.41 -10.43 -10.41 -10.39 -10.36 -10.34 -10.30 -10.29 -10.35 -10.33 -10.29 -10.29 -10.30 -10.29 -10.30 -10.30 -10.29 -10.28 -10.25 -10.26 -10.23 -10.25 -10.24 -10.22 -10.23 -10.16 -10.22 -10.18 -10.17 -10.17 -10.18 -10.13 -10.10 -10.08 -10.10 -10.08 -10.06 -10.07 -10.06 -10.04 -10.04 -10.02 -9.98 -10.02 -10.01 -10.01 -9.99 -10.00 -9.96 -9.97 -9.97 -9.99 -9.98 -9.96 -9.94 -9.93 -9.92 -9.90 -9.89 -9.89 -9.85 -9.88 -9.86 -9.87 -9.87 -9.89 -9.88 -9.88 -9.90 -9.89 -9.88 -9.85 -9.85 -9.83 -9.82 -9.83 -9.84 -9.86 -9.80 -9.83 -9.83 -9.83 -9.82 -9.81 -9.81 -9.83 -9.80 -9.79 -9.78 -9.79 -9.79 -9.79 -9.80 -9.78 -9.78 -9.82 -9.81 -9.77 -9.80 -9.78 -9.74 -9.76 -9.72 -9.75 -9.74 -9.76 -9.75 -9.73 -9.74 -9.78 -9.78 -9.77 -9.74 -9.71 -9.71 -9.71 -9.72 -9.64 -9.71 -9.70 -9.69 -9.70 -9.68 -9.66 -9.64 -9999.00 -9999.00 -9999.00 -9999.00 -9999.00 -9999.00 -9999.00 -9999.00 -9999.00 -9999.00 -9999.00 -9999.00 -9999.00 -9999.00 -9999.00 -9999.00 -9999.00 -9999.00 -9999.00 -9999.00 -9999.00 -9999.00 -9999.00 -9999.00 -9999.00 -9999.00 -9999.00 -9999.00 -9999.00 -9999.00 -9999.00 -9999.00 -9999.00 -9999.00 -9999.00 -9999.00 -9999.00 -9999.00 -9999.00
-14.41 -14.38 -14.35 -14.36 -14.36 -14.39 -14.42 -14.40 -14.39 -14.40 -14.29 -14.26 -14.31 -14.21 -14.22 -14.24 -14.22 -14.23 -14.21 -14.18 -14.04 -13.90 -13.83 -13.79 -13.76 -13.75 -13.66 -13.58 -13.52 -13.42 -13.31 -13.23 -13.16 -13.14 -13.14 -13.17 -13.19 -13.20 -13.18 -13.17 -13.18 -13.17 -13.11 -13.07 -13.02 -12.99 -12.93 -12.90 -12.75 -12.57 -12.39 -12.26 -12.15 -12.04 -11.92 -11.81 -11.71 -11.63 -11.57 -11.51 -11.43 -11.26 -11.14 -11.07 -10.97 -10.91 -10.82 -10.79 -10.77 -10.77 -10.73 -10.69 -10.70 -10.75 -10.73 -10.68 -10.66 -10.55 -10.59 -10.59 -10.58 -10.56 -10.54 -10.51 -10.50 -10.50 -10.50 -10.51 -10.52 -10.51 -10.49 -10.43 -10.37 -10.31 -10.25 -10.20 -10.15 -10.08 -10.01 -9.94 -9.86 -9.89 -9.92 -9.95 -9.99 -10.03 -10.07 -10.08 -10.07 -10.05 -10.03 -10.01 -9.99 -9.97 -9.94 -9.99 -10.01 -10.03 -10.05 -10.07 -10.10 -10.13 -10.15 -10.16 -10.15 -10.14 -10.12 -10.11 -10.10 -10.09 -10.08 -10.07 -10.07 -10.08 -10.09 -10.10 -10.12 -10.13 -10.15 -10.17 -10.19 -10.18 -10.15 -10.16 -10.18 -10.18 -10.19 -10.21 -10.21 -10.23 -10.23 -10.25 -10.27 -10.31 -10.31 -10.32 -10.30 -10.25 -10.32 -10.34 -10.31 -10.23 -10.20 -10.26 -10.27 -10.24 -10.20 -10.19 -10.15 -10.12 -10.15 -10.21 -10.25 -10.29 -10.32 -10.40 -10.44 -10.42 -10.40 -10.36 -10.35 -10.34 -10.34 -10.34 -10.34 -10.33 -10.31 -10.25 -10.24 -10.27 -10.30 -10.30 -10.30 -10.35 -10.39 -10.42 -10.46 -10.47 -10.50 -10.54 -10.49 -10.42 -10.43 -10.44 -10.43 -10.42 -10.40 -10.42 -10.41 -10.41 -10.40 -10.38 -10.36 -10.35 -10.38 -10.38 -10.35 -10.35 -10.35 -10.33 -10.28 -10.27 -10.27 -10.25 -10.26 -10.29 -10.27 -10.23 -10.24 -10.24 -10.26 -10.25 -10.27 -10.22 -10.23 -10.24 -10.22 -10.23 -10.21 -10.16 -10.16 -10.13 -10.13 -10.12 -10.12 -10.11 -10.13 -10.07 -10.08 -10.06 -10.06 -10.05 -10.02 -10.02 -10.01 -10.01 -9.99 -9.99 -9.94 -9.94 -9.98 -9.97 -9.95 -9.96 -9.93 -9.91 -9.92 -9.92 -9.93 -9.90 -9.88 -9.86 -9.84 -9.83 -9.84 -9.84 -9.82 -9.84 -9.83 -9.83 -9.83 -9.85 -9.84 -9.83 -9.85 -9.82 -9.81 -9.78 -9.78 -9.78 -9.74 -9.79 -9.80 -9.80 -9.79 -9.79 -9.76 -9.78 -9.77 -9.76 -9.76 -9.78 -9.75 -9.73 -9.72 -9.75 -9.74 -9.74 -9.73 -9.75 -9.73 -9.76 -9.76 -9.72 -9.72 -9.69 -9.67 -9.69 -9.69 -9.70 -9.72 -9.71 -9.70 -9.70 -9.67 -9.68 -9.67 -9.67 -9.68 -9.68 -9.62 -9.65 -9.66 -9.63 -9.67 -9.64 -9.65 -9.60 -9.62 -9.60 -9999.00 -9999.00 -9999.00 -9999.00 -9999.00 -9999.00 -9999.00 -9999.00 -9999.00 -9999.00 -9999.00 -9999.00 -9999.00 -9999.00 -9999.00 -9999.00 -9999.00 -9999.00 -9999.00 -9999.00 -9999.00 -9999.00 -9999.00 -9999.00 -9999.00 -9999.00 -9999.00 -9999.00 -9999.00 -9999.00 -9999.00 -9999.00 -9999.00 -9999.00 -9999.00 -9999.00 -9999.00 -9999.00
-14.28 -14.27 -14.26 -14.26 -14.25 -14.29 -14.28 -14.28 -14.22 -14.23 -14.22 -14.16 -14.15 -14.19 -14.16 -14.12 -14.14 -14.12 -14.02 -14.00 -13.90 -13.81 -13.71 -13.68 -13.64 -13.57 -13.54 -13.40 -13.34 -13.25 -13.18 -13.07 -13.02 -13.04 -13.08 -13.13 -13.16 -13.20 -13.20 -13.18 -13.15 -13.09 -13.04 -13.01 -12.92 -12.85 -12.79 -12.68 -12.53 -12.40 -12.29 -12.15 -12.01 -11.89 -11.84 -11.80 -11.73 -11.60 -11.51 -11.36 -11.29 -11.16 -11.08 -10.99 -10.88 -10.82 -10.79 -10.81 -10.74 -10.75 -10.87 -10.85 -10.76 -10.75 -10.70 -10.72 -10.70 -10.67 -10.67 -10.61 -10.59 -10.56 -10.52 -10.40 -10.30 -10.34 -10.36 -10.39 -10.42 -10.44 -10.47 -10.42 -10.35 -10.29 -10.23 -10.17 -10.11 -10.05 -10.00 -9.92 -9.85 -9.87 -9.88 -9.90 -9.92 -9.93 -9.94 -9.94 -9.95 -9.96 -9.96 -9.96 -9.95 -9.94 -9.93 -9.93 -9.96 -9.99 -10.01 -10.04 -10.05 -10.06 -10.08 -10.10 -10.09 -10.08 -10.07 -10.06 -10.05 -10.03 -10.02 -10.01 -9.99 -10.00 -10.02 -10.03 -10.05 -10.06 -10.07 -10.08 -10.08 -10.08 -10.06 -10.04 -10.04 -10.06 -10.08 -10.08 -10.12 -10.16 -10.16 -10.18 -10.18 -10.21 -10.23 -10.22 -10.22 -10.24 -10.24 -10.22 -10.21 -10.14 -10.19 -10.23 -10.22 -10.16 -10.09 -10.10 -10.08 -10.07 -10.09 -10.11 -10.17 -10.24 -10.28 -10.30 -10.30 -10.29 -10.26 -10.23 -10.26 -10.25 -10.22 -10.23 -10.23 -10.23 -10.25 -10.25 -10.25 -10.25 -10.21 -10.23 -10.26 -10.30 -10.33 -10.33 -10.37 -10.40 -10.44 -10.46 -10.45 -10.41 -10.41 -10.39 -10.35 -10.32 -10.33 -10.35 -10.33 -10.33 -10.32 -10.34 -10.32 -10.35 -10.31 -10.29 -10.30 -10.30 -10.29 -10.23 -10.27 -10.27 -10.25 -10.22 -10.22 -10.22 -10.21 -10.22 -10.23 -10.21 -10.17 -10.20 -10.20 -10.23 -10.21 -10.22 -10.20 -10.20 -10.18 -10.15 -10.15 -10.11 -10.09 -10.08 -10.07 -10.08 -10.06 -10.08 -10.09 -10.06 -10.07 -10.06 -10.03 -10.02 -10.00 -9.99 -9.99 -9.98 -9.97 -9.96 -9.92 -9.92 -9.95 -9.95 -9.92 -9.91 -9.88 -9.85 -9.86 -9.84 -9.88 -9.86 -9.82 -9.80 -9.79 -9.79 -9.79 -9.80 -9.79 -9.81 -9.80 -9.81 -9.78 -9.79 -9.80 -9.79 -9.79 -9.75 -9.74 -9.71 -9.71 -9.75 -9.76 -9.76 -9.77 -9.76 -9.75 -9.73 -9.71 -9.73 -9.72 -9.72 -9.70 -9.73 -9.70 -9.68 -9.69 -9.69 -9.70 -9.69 -9.67 -9.70 -9.67 -9.68 -9.68 -9.65 -9.65 -9.62 -9.64 -9.63 -9.64 -9.65 -9.65 -9.63 -9.59 -9.65 -9.62 -9.62 -9.61 -9.60 -9.58 -9.62 -9.60 -9.60 -9.61 -9.61 -9.63 -9.60 -9.57 -9.58 -9.57 -9.56 -9999.00 -9999.00 -9999.00 -9999.00 -9999.00 -9999.00 -9999.00 -9999.00 -9999.00 -9999.00 -9999.00 -9999.00 -9999.00 -9999.00 -9999.00 -9999.00 -9999.00 -9999.00 -9999.00 -9999.00 -9999.00 -9999.00 -9999.00 -9999.00 -9999.00 -9999.00 -9999.00 -9999.00 -9999.00 -9999.00 -9999.00 -9999.00 -9999.00 -9999.00 -9999.00 -9999.00
-14.19 -14.18 -14.16 -14.18 -14.15 -14.17 -14.15 -14.17 -14.16 -14.13 -14.10 -14.23 -14.13 -14.11 -14.10 -14.07 -14.05 -13.98 -13.93 -13.93 -13.87 -13.76 -13.67 -13.58 -13.50 -13.42 -13.36 -13.30 -13.21 -13.12 -13.05 -13.01 -13.03 -13.07 -13.11 -13.13 -13.14 -13.14 -13.12 -13.09 -13.08 -13.07 -12.98 -12.90 -12.78 -12.71 -12.65 -12.54 -12.43 -12.27 -12.06 -11.85 -11.84 -11.86 -11.85 -11.74 -11.60 -11.52 -11.42 -11.31 -11.21 -11.09 -10.93 -10.85 -10.84 -10.80 -10.78 -10.83 -10.88 -10.84 -10.79 -10.83 -10.85 -10.82 -10.81 -10.78 -10.72 -10.63 -10.62 -10.54 -10.51 -10.51 -10.49 -10.44 -10.35 -10.27 -10.30 -10.34 -10.37 -10.42 -10.44 -10.39 -10.33 -10.28 -10.22 -10.17 -10.12 -10.06 -10.01 -9.96 -9.86 -9.86 -9.87 -9.89 -9.92 -9.95 -9.98 -9.99 -9.98 -9.97 -9.97 -9.96 -9.94 -9.92 -9.89 -9.87 -9.88 -9.89 -9.92 -9.95 -9.97 -9.99 -10.01 -10.02 -10.01 -9.99 -9.98 -9.96 -9.95 -9.94 -9.93 -9.92 -9.94 -9.98 -10.01 -9.99 -10.01 -10.02 -10.02 -10.01 -10.00 -10.00 -10.03 -10.04 -10.07 -10.07 -10.07 -10.05 -10.04 -10.02 -10.03 -10.04 -10.07 -10.09 -10.10 -10.11 -10.15 -10.15 -10.15 -10.15 -10.16 -10.16 -10.15 -10.13 -10.13 -10.10 -10.11 -10.10 -10.11 -10.08 -10.03 -10.09 -10.11 -10.15 -10.19 -10.16 -10.22 -10.21 -10.19 -10.15 -10.13 -10.12 -10.11 -10.07 -10.08 -10.13 -10.16 -10.17 -10.19 -10.19 -10.20 -10.21 -10.22 -10.20 -10.25 -10.27 -10.30 -10.34 -10.37 -10.37 -10.36 -10.35 -10.34 -10.34 -10.29 -10.26 -10.27 -10.22 -10.24 -10.24 -10.26 -10.25 -10.23 -10.23 -10.24 -10.25 -10.23 -10.21 -10.20 -10.23 -10.21 -10.15 -10.19 -10.21 -10.20 -10.19 -10.17 -10.16 -10.17 -10.17 -10.19 -10.17 -10.14 -10.16 -10.15 -10.19 -10.17 -10.16 -10.15 -10.14 -10.12 -10.10 -10.08 -10.05 -10.02 -10.03 -10.01 -10.05 -10.05 -10.06 -10.04 -10.06 -10.00 -10.01 -9.98 -9.97 -9.97 -9.97 -9.96 -9.96 -9.93 -9.95 -9.92 -9.91 -9.93 -9.89 -9.86 -9.85 -9.81 -9.80 -9.82 -9.81 -9.83 -9.81 -9.78 -9.76 -9.75 -9.76 -9.76 -9.77 -9.76 -9.75 -9.74 -9.76 -9.75 -9.73 -9.74 -9.73 -9.72 -9.69 -9.69 -9.69 -9.69 -9.70 -9.71 -9.72 -9.72 -9.70 -9.69 -9.67 -9.66 -9.68 -9.66 -9.65 -9.65 -9.68 -9.64 -9.64 -9.67 -9.64 -9.65 -9.64 -9.62 -9.61 -9.61 -9.60 -9.60 -9.61 -9.59 -9.58 -9.59 -9.59 -9.59 -9.59 -9.58 -9.58 -9.56 -9.56 -9.58 -9.52 -9.53 -9.56 -9.54 -9.57 -9.57 -9.56 -9.56 -9.59 -9.55 -9.56 -9.55 -9.52 -9.52 -9.53 -9999.00 -9999.00 -9999.00 -9999.00 -9999.00 -9999.00 -9999.00 -9999.00 -9999.00 -9999.00 -9999.00 -9999.00 -9999.00 -9999.00 -9999.00 -9999.00 -9999.00 -9999.00 -9999.00 -9999.00 -9999.00 -9999.00 -9999.00 -9999.00 -9999.00 -9999.00 -9999.00 -9999.00 -9999.00 -9999.00 -9999.00 -9999.00 -9999.00 -9999.00
-14.09 -14.11 -14.11 -14.10 -14.08 -14.10 -14.13 -14.10 -14.07 -14.10 -14.09 -14.05 -14.05 -14.02 -14.00 -13.93 -13.91 -13.89 -13.83 -13.84 -13.74 -13.65 -13.53 -13.46 -13.39 -13.31 -13.25 -13.17 -13.16 -13.06 -13.01 -13.07 -13.07 -13.05 -13.09 -13.05 -13.06 -13.02 -13.02 -13.03 -13.02 -12.98 -12.92 -12.81 -12.75 -12.70 -12.61 -12.48 -12.33 -12.06 -11.81 -11.65 -11.70 -11.72 -11.74 -11.65 -11.54 -11.45 -11.35 -11.20 -11.06 -10.95 -10.87 -10.81 -10.83 -10.86 -10.82 -10.83 -10.87 -10.94 -10.98 -10.96 -10.90 -10.83 -10.74 -10.73 -10.74 -10.72 -10.70 -10.60 -10.54 -10.50 -10.43 -10.34 -10.25 -10.20 -10.26 -10.28 -10.31 -10.34 -10.37 -10.33 -10.29 -10.25 -10.20 -10.16 -10.11 -10.07 -10.03 -9.99 -9.93 -9.94 -9.94 -9.95 -9.96 -9.97 -9.98 -9.97 -9.94 -9.93 -9.92 -9.92 -9.90 -9.89 -9.87 -9.86 -9.87 -9.88 -9.89 -9.90 -9.91 -9.93 -9.94 -9.96 -9.96 -9.95 -9.95 -9.95 -9.95 -9.96 -9.96 -9.97 -9.99 -9.99 -9.98 -9.97 -9.96 -9.97 -9.97 -9.99 -9.99 -9.99 -9.96 -9.99 -10.01 -9.99 -9.98 -10.00 -9.99 -9.98 -9.98 -9.99 -10.00 -10.00 -10.00 -9.92 -9.93 -9.98 -10.03 -10.05 -10.09 -10.10 -10.08 -10.08 -10.10 -10.12 -10.08 -10.06 -10.06 -10.04 -9.99 -10.04 -10.05 -10.02 -10.10 -10.13 -10.12 -10.10 -10.05 -10.08 -10.07 -10.05 -10.00 -10.01 -10.02 -10.05 -10.09 -10.10 -10.10 -10.05 -10.13 -10.13 -10.13 -10.16 -10.18 -10.19 -10.22 -10.23 -10.26 -10.25 -10.27 -10.24 -10.24 -10.23 -10.19 -10.21 -10.16 -10.15 -10.13 -10.12 -10.13 -10.15 -10.16 -10.17 -10.18 -10.15 -10.16 -10.16 -10.16 -10.11 -10.13 -10.15 -10.15 -10.13 -10.10 -10.14 -10.14 -10.12 -10.13 -10.11 -10.11 -10.14 -10.13 -10.10 -10.09 -10.12 -10.11 -10.13 -10.12 -10.07 -10.08 -10.06 -10.05 -10.03 -10.02 -9.98 -9.98 -10.01 -10.01 -10.02 -10.04 -10.02 -10.01 -9.98 -9.95 -9.95 -9.93 -9.92 -9.94 -9.95 -9.94 -9.92 -9.89 -9.94 -9.90 -9.86 -9.88 -9.83 -9.79 -9.78 -9.75 -9.74 -9.75 -9.76 -9.73 -9.75 -9.73 -9.74 -9.71 -9.72 -9.73 -9.73 -9.72 -9.72 -9.68 -9.70 -9.72 -9.69 -9.69 -9.68 -9.68 -9.67 -9.67 -9.68 -9.68 -9.64 -9.64 -9.65 -9.65 -9.65 -9.64 -9.61 -9.61 -9.61 -9.62 -9.61 -9.61 -9.58 -9.58 -9.61 -9.61 -9.58 -9.58 -9.56 -9.57 -9.53 -9.55 -9.55 -9.57 -9.56 -9.56 -9.54 -9.54 -9.52 -9.52 -9.52 -9.51 -9.48 -9.52 -9.47 -9.48 -9.50 -9.51 -9.50 -9.52 -9.51 -9.52 -9.53 -9.52 -9.52 -9.50 -9.49 -9.48 -9.47 -9.47 -9.46 -9999.00 -9999.00 -9999.00 -9999.00 -9999.00 -9999.00 -9999.00 -9999.00 -9999.00 -9999.00 -9999.00 -9999.00 -9999.00 -9999.00 -9999.00 -9999.00 -9999.00 -9999.00 -9999.00 -9999.00 -9999.00 -9999.00 -9999.00 -9999.00 -9999.00 -9999.00 -9999.00 -9999.00 -9999.00 -9999.00 -9999.00 -9999.00
-13.99 -14.06 -14.01 -14.00 -14.07 -14.03 -14.03 -14.01 -14.03 -14.00 -14.00 -13.98 -13.93 -13.89 -13.86 -13.79 -13.75 -13.72 -13.71 -13.67 -13.62 -13.52 -13.43 -13.36 -13.30 -13.23 -13.22 -13.15 -13.08 -13.08 -13.08 -13.12 -13.06 -13.01 -13.00 -12.98 -12.95 -12.93 -12.95 -12.97 -12.97 -12.91 -12.85 -12.80 -12.70 -12.61 -12.48 -12.33 -12.21 -12.06 -11.86 -11.68 -11.65 -11.63 -11.62 -11.59 -11.50 -11.33 -11.18 -10.99 -10.92 -10.82 -10.82 -10.88 -10.89 -10.91 -10.97 -11.01 -11.00 -10.97 -10.96 -10.86 -10.79 -10.78 -10.76 -10.77 -10.72 -10.71 -10.66 -10.62 -10.57 -10.48 -10.39 -10.28 -10.19 -10.12 -10.14 -10.15 -10.17 -10.20 -10.20 -10.15 -10.11 -10.07 -10.03 -9.99 -9.94 -9.90 -9.85 -9.82 -9.85 -9.84 -9.83 -9.84 -9.85 -9.87 -9.89 -9.87 -9.86 -9.85 -9.85 -9.84 -9.82 -9.79 -9.76 -9.76 -9.78 -9.81 -9.83 -9.85 -9.87 -9.89 -9.90 -9.91 -9.91 -9.92 -9.93 -9.94 -9.95 -9.94 -9.95 -9.96 -9.98 -9.97 -9.96 -9.96 -9.95 -9.96 -9.98 -9.98 -9.98 -9.94 -9.94 -9.90 -9.92 -9.97 -9.92 -9.88 -9.91 -9.89 -9.90 -9.88 -9.85 -9.85 -9.89 -9.90 -9.89 -9.91 -9.92 -9.93 -9.95 -9.97 -9.96 -9.94 -9.98 -9.99 -9.98 -9.98 -10.03 -10.04 -9.99 -9.97 -9.93 -9.94 -9.94 -9.98 -9.96 -10.00 -10.00 -9.99 -9.96 -9.95 -9.95 -9.95 -9.94 -9.91 -9.98 -10.01 -10.01 -10.02 -10.04 -10.06 -10.04 -10.06 -10.10 -10.07 -10.10 -10.15 -10.14 -10.17 -10.14 -10.13 -10.13 -10.13 -10.10 -10.09 -10.08 -10.06 -10.04 -10.05 -10.00 -10.01 -10.02 -10.04 -10.07 -10.08 -10.09 -10.10 -10.09 -10.09 -10.08 -10.06 -10.07 -10.05 -10.08 -10.07 -10.02 -10.04 -10.06 -10.06 -10.05 -10.05 -10.05 -10.06 -10.06 -10.02 -10.04 -10.07 -10.05 -10.06 -10.02 -10.02 -10.00 -9.99 -9.96 -9.97 -9.97 -9.97 -9.98 -9.98 -10.00 -9.98 -9.97 -9.95 -9.93 -9.89 -9.89 -9.90 -9.89 -9.86 -9.89 -9.91 -9.91 -9.88 -9.86 -9.87 -9.83 -9.79 -9.79 -9.75 -9.74 -9.70 -9.68 -9.69 -9.71 -9.71 -9.71 -9.69 -9.70 -9.70 -9.67 -9.69 -9.69 -9.70 -9.68 -9.67 -9.65 -9.65 -9.69 -9.66 -9.65 -9.65 -9.65 -9.64 -9.62 -9.62 -9.60 -9.59 -9.57 -9.59 -9.60 -9.58 -9.57 -9.56 -9.55 -9.59 -9.58 -9.57 -9.56 -9.53 -9.54 -9.54 -9.52 -9.49 -9.52 -9.50 -9.52 -9.49 -9.50 -9.52 -9.53 -9.49 -9.50 -9.48 -9.49 -9.47 -9.46 -9.45 -9.45 -9.43 -9.48 -9.48 -9.45 -9.46 -9.47 -9.47 -9.47 -9.49 -9.47 -9.50 -9.48 -9.45 -9.47 -9.45 -9.43 -9.43 -9.42 -9999.00 -9999.00 -9999.00 -9999.00 -9999.00 -9999.00 -9999.00 -9999.00 -9999.00 -9999.00 -9999.00 -9999.00 -9999.00 -9999.00 -9999.00 -9999.00 -9999.00 -9999.00 -9999.00 -9999.00 -9999.00 -9999.00 -9999.00 -9999.00 -9999.00 -9999.00 -9999.00 -9999.00 -9999.00 -9999.00 -9999.00
-13.94 -13.95 -13.97 -13.97 -13.96 -13.96 -13.88 -13.89 -13.90 -13.88 -13.85 -13.84 -13.79 -13.73 -13.69 -13.66 -13.64 -13.55 -13.53 -13.50 -13.49 -13.47 -13.36 -13.29 -13.23 -13.18 -13.10 -13.12 -13.19 -13.14 -13.13 -13.12 -13.06 -12.97 -12.92 -12.92 -12.91 -12.92 -12.90 -12.89 -12.87 -12.88 -12.75 -12.62 -12.51 -12.38 -12.23 -12.12 -12.01 -11.87 -11.70 -11.53 -11.51 -11.56 -11.54 -11.42 -11.31 -11.16 -10.96 -10.75 -10.73 -10.74 -10.82 -10.91 -11.04 -11.04 -11.04 -11.07 -11.01 -10.94 -10.91 -10.88 -10.89 -10.86 -10.83 -10.82 -10.78 -10.75 -10.76 -10.65 -10.52 -10.46 -10.34 -10.25 -10.16 -10.06 -10.06 -10.05 -10.00 -9.96 -9.91 -9.87 -9.85 -9.83 -9.81 -9.79 -9.77 -9.75 -9.73 -9.71 -9.68 -9.75 -9.80 -9.81 -9.79 -9.78 -9.80 -9.81 -9.78 -9.74 -9.71 -9.67 -9.63 -9.57 -9.49 -9.47 -9.54 -9.61 -9.68 -9.74 -9.80 -9.86 -9.91 -9.93 -9.92 -9.91 -9.89 -9.86 -9.87 -9.88 -9.87 -9.84 -9.84 -9.86 -9.90 -9.93 -9.93 -9.93 -9.92 -9.91 -9.90 -9.88 -9.86 -9.87 -9.87 -9.86 -9.86 -9.86 -9.83 -9.82 -9.84 -9.85 -9.81 -9.81 -9.75 -9.78 -9.76 -9.79 -9.79 -9.78 -9.81 -9.81 -9.81 -9.81 -9.83 -9.82 -9.82 -9.82 -9.82 -9.84 -9.86 -9.86 -9.85 -9.86 -9.85 -9.86 -9.83 -9.86 -9.85 -9.87 -9.85 -9.88 -9.85 -9.85 -9.85 -9.85 -9.86 -9.83 -9.88 -9.94 -9.95 -9.95 -9.96 -9.97 -9.98 -10.01 -10.02 -10.06 -10.00 -10.02 -10.02 -10.03 -10.01 -9.98 -9.99 -9.99 -9.97 -9.96 -9.94 -9.92 -9.92 -9.93 -9.91 -9.89 -9.93 -9.96 -9.99 -10.00 -10.00 -10.01 -10.02 -10.01 -10.01 -9.99 -9.99 -9.96 -10.00 -10.01 -9.96 -9.96 -10.01 -10.00 -9.97 -9.96 -9.94 -10.00 -10.00 -9.99 -10.00 -10.00 -9.98 -9.99 -9.95 -9.95 -9.92 -9.93 -9.95 -9.96 -9.97 -9.95 -9.97 -9.94 -9.95 -9.93 -9.92 -9.87 -9.85 -9.82 -9.85 -9.86 -9.86 -9.86 -9.80 -9.85 -9.86 -9.84 -9.80 -9.80 -9.76 -9.72 -9.73 -9.70 -9.67 -9.68 -9.68 -9.68 -9.68 -9.67 -9.68 -9.68 -9.65 -9.66 -9.63 -9.66 -9.66 -9.65 -9.64 -9.62 -9.62 -9.62 -9.62 -9.63 -9.62 -9.61 -9.58 -9.58 -9.56 -9.55 -9.54 -9.54 -9.51 -9.51 -9.54 -9.53 -9.52 -9.52 -9.51 -9.55 -9.53 -9.51 -9.48 -9.46 -9.48 -9.46 -9.45 -9.45 -9.44 -9.45 -9.47 -9.46 -9.45 -9.49 -9.44 -9.42 -9.43 -9.41 -9.44 -9.43 -9.41 -9.41 -9.42 -9.42 -9.46 -9.45 -9.44 -9.45 -9.44 -9.44 -9.41 -9.46 -9.46 -9.46 -9.42 -9.43 -9.39 -9.39 -9.39 -9.37 -9.37 -9999.00 -9999.00 -9999.00 -9999.00 -9999.00 -9999.00 -9999.00 -9999.00 -9999.00 -9999.00 -9999.00 -9999.00 -9999.00 -9999.00 -9999.00 -9999.00 -9999.00 -9999.00 -9999.00 -9999.00 -9999.00 -9999.00 -9999.00 -9999.00 -9999.00 -9999.00 -9999.00 -9999.00 -9999.00
-13.85 -13.87 -13.89 -13.89 -13.82 -13.80 -13.82 -13.77 -13.78 -13.73 -13.68 -13.66 -13.63 -13.64 -13.53 -13.50 -13.45 -13.38 -13.39 -13.39 -13.35 -13.31 -13.23 -13.20 -13.20 -13.18 -13.19 -13.14 -13.15 -13.14 -13.15 -13.14 -13.08 -12.99 -12.92 -12.92 -12.89 -12.81 -12.67 -12.68 -12.68 -12.62 -12.53 -12.37 -12.22 -12.08 -11.93 -11.88 -11.85 -11.80 -11.61 -11.48 -11.46 -11.41 -11.37 -11.33 -11.13 -10.95 -10.78 -10.62 -10.60 -10.67 -10.79 -10.92 -11.19 -11.18 -11.12 -11.06 -11.06 -11.04 -11.00 -10.96 -10.88 -10.84 -10.76 -10.70 -10.67 -10.69 -10.65 -10.56 -10.43 -10.36 -10.27 -10.19 -10.10 -10.04 -9.98 -9.94 -9.90 -9.84 -9.85 -9.83 -9.81 -9.79 -9.77 -9.76 -9.75 -9.73 -9.72 -9.70 -9.71 -9.71 -9.70 -9.74 -9.76 -9.80 -9.80 -9.78 -9.70 -9.62 -9.53 -9.43 -9.34 -9.22 -9.10 -9.07 -9.17 -9.27 -9.37 -9.47 -9.57 -9.67 -9.77 -9.87 -9.89 -9.88 -9.87 -9.86 -9.86 -9.85 -9.84 -9.84 -9.82 -9.79 -9.77 -9.77 -9.77 -9.79 -9.81 -9.80 -9.80 -9.80 -9.81 -9.82 -9.81 -9.81 -9.79 -9.73 -9.73 -9.75 -9.76 -9.75 -9.75 -9.74 -9.71 -9.73 -9.73 -9.71 -9.69 -9.67 -9.63 -9.65 -9.69 -9.70 -9.67 -9.64 -9.65 -9.67 -9.68 -9.69 -9.70 -9.71 -9.70 -9.71 -9.70 -9.73 -9.74 -9.74 -9.76 -9.74 -9.76 -9.75 -9.76 -9.73 -9.77 -9.78 -9.80 -9.78 -9.78 -9.81 -9.80 -9.83 -9.88 -9.89 -9.90 -9.90 -9.88 -9.90 -9.92 -9.92 -9.92 -9.92 -9.89 -9.88 -9.85 -9.84 -9.80 -9.84 -9.85 -9.82 -9.81 -9.79 -9.78 -9.82 -9.83 -9.80 -9.85 -9.85 -9.92 -9.93 -9.94 -9.94 -9.94 -9.94 -9.94 -9.93 -9.92 -9.89 -9.91 -9.93 -9.92 -9.91 -9.93 -9.92 -9.91 -9.88 -9.90 -9.96 -9.92 -9.94 -9.95 -9.93 -9.92 -9.93 -9.92 -9.87 -9.91 -9.89 -9.92 -9.95 -9.94 -9.90 -9.90 -9.88 -9.89 -9.88 -9.86 -9.85 -9.80 -9.81 -9.83 -9.82 -9.82 -9.82 -9.73 -9.79 -9.78 -9.76 -9.73 -9.73 -9.69 -9.65 -9.67 -9.67 -9.66 -9.68 -9.68 -9.68 -9.65 -9.65 -9.66 -9.66 -9.62 -9.64 -9.58 -9.63 -9.62 -9.60 -9.59 -9.56 -9.56 -9.58 -9.58 -9.56 -9.55 -9.55 -9.51 -9.50 -9.50 -9.49 -9.48 -9.48 -9.45 -9.44 -9.48 -9.49 -9.48 -9.51 -9.48 -9.46 -9.43 -9.43 -9.44 -9.40 -9.41 -9.42 -9.41 -9.42 -9.41 -9.41 -9.40 -9.40 -9.41 -9.42 -9.39 -9.35 -9.36 -9.35 -9.39 -9.39 -9.37 -9.39 -9.39 -9.39 -9.44 -9.43 -9.42 -9.42 -9.41 -9.41 -9.38 -9.43 -9.40 -9.39 -9.38 -9.38 -9.35 -9.33 -9.33 -9.30 -9.32 -9999.00 -9999.00 -9999.00 -9999.00 -9999.00 -9999.00 -9999.00 -9999.00 -9999.00 -9999.00 -9999.00 -9999.00 -9999.00 -9999.00 -9999.00 -9999.00 -9999.00 -9999.00 -9999.00 -9999.00 -9999.00 -9999.00 -9999.00 -9999.00 -9999.00 -9999.00 -9999.00
-13.74 -13.81 -13.76 -13.75 -13.74 -13.74 -13.73 -13.68 -13.64 -13.63 -13.61 -13.53 -13.48 -13.41 -13.38 -13.35 -13.31 -13.27 -13.24 -13.21 -13.20 -13.17 -13.23 -13.17 -13.16 -13.11 -13.11 -13.11 -13.17 -13.19 -13.19 -13.20 -13.16 -13.05 -12.91 -12.82 -12.74 -12.68 -12.54 -12.48 -12.41 -12.34 -12.24 -12.10 -11.98 -11.80 -11.72 -11.61 -11.55 -11.49 -11.44 -11.46 -11.45 -11.34 -11.26 -11.18 -11.03 -10.77 -10.63 -10.50 -10.47 -10.64 -10.82 -11.00 -11.14 -11.22 -11.19 -11.12 -11.04 -10.96 -10.86 -10.80 -10.77 -10.75 -10.71 -10.67 -10.64 -10.58 -10.47 -10.37 -10.30 -10.16 -10.12 -10.05 -10.02 -10.02 -10.03 -9.92 -9.83 -9.74 -9.82 -9.80 -9.78 -9.76 -9.74 -9.72 -9.70 -9.68 -9.66 -9.66 -9.71 -9.73 -9.64 -9.64 -9.64 -9.63 -9.65 -9.67 -9.57 -9.44 -9.31 -9.21 -9.14 -9.08 -9.01 -9.01 -9.12 -9.22 -9.34 -9.44 -9.54 -9.65 -9.74 -9.83 -9.82 -9.81 -9.81 -9.79 -9.78 -9.78 -9.79 -9.80 -9.78 -9.75 -9.73 -9.73 -9.72 -9.71 -9.69 -9.68 -9.68 -9.68 -9.66 -9.66 -9.67 -9.67 -9.66 -9.63 -9.63 -9.66 -9.62 -9.59 -9.60 -9.58 -9.59 -9.63 -9.64 -9.61 -9.60 -9.59 -9.59 -9.60 -9.56 -9.51 -9.50 -9.49 -9.50 -9.53 -9.54 -9.55 -9.54 -9.55 -9.57 -9.58 -9.60 -9.62 -9.63 -9.65 -9.64 -9.64 -9.64 -9.64 -9.67 -9.65 -9.69 -9.70 -9.66 -9.66 -9.72 -9.74 -9.73 -9.74 -9.78 -9.77 -9.81 -9.83 -9.84 -9.82 -9.81 -9.78 -9.76 -9.79 -9.77 -9.78 -9.73 -9.69 -9.69 -9.66 -9.66 -9.61 -9.68 -9.70 -9.69 -9.70 -9.71 -9.73 -9.75 -9.73 -9.78 -9.80 -9.85 -9.85 -9.86 -9.86 -9.86 -9.86 -9.87 -9.86 -9.84 -9.81 -9.83 -9.85 -9.86 -9.84 -9.88 -9.86 -9.87 -9.85 -9.88 -9.91 -9.87 -9.88 -9.87 -9.87 -9.86 -9.87 -9.88 -9.85 -9.88 -9.84 -9.88 -9.89 -9.88 -9.86 -9.85 -9.84 -9.84 -9.84 -9.79 -9.80 -9.79 -9.80 -9.78 -9.78 -9.77 -9.76 -9.70 -9.70 -9.71 -9.68 -9.67 -9.66 -9.64 -9.64 -9.67 -9.65 -9.66 -9.65 -9.65 -9.64 -9.63 -9.64 -9.64 -9.64 -9.62 -9.62 -9.54 -9.58 -9.56 -9.56 -9.53 -9.51 -9.53 -9.54 -9.51 -9.50 -9.49 -9.47 -9.46 -9.44 -9.43 -9.43 -9.43 -9.44 -9.43 -9.40 -9.42 -9.43 -9.42 -9.40 -9.39 -9.39 -9.38 -9.39 -9.37 -9.38 -9.33 -9.37 -9.37 -9.34 -9.35 -9.36 -9.34 -9.33 -9.34 -9.35 -9.35 -9.29 -9.32 -9.34 -9.36 -9.34 -9.35 -9.37 -9.36 -9.37 -9.38 -9.42 -9.39 -9.40 -9.38 -9.37 -9.38 -9.37 -9.35 -9.33 -9.34 -9.28 -9.32 -9.31 -9.28 -9.31 -9999.00 -9999.00 -9999.00 -9999.00 -9999.00 -9999.00 -9999.00 -9999.00 -9999.00 -9999.00 -9999.00 -9999.00 -9999.00 -9999.00 -9999.00 -9999.00 -9999.00 -9999.00 -9999.00 -9999.00 -9999.00 -9999.00 -9999.00 -9999.00 -9999.00 -9999.00
-13.67 -13.72 -13.70 -13.68 -13.63 -13.60 -13.64 -13.60 -13.57 -13.55 -13.48 -13.41 -13.36 -13.33 -13.29 -13.22 -13.19 -13.15 -13.11 -13.11 -13.14 -13.13 -13.13 -13.09 -13.08 -13.10 -13.17 -13.22 -13.24 -13.27 -13.25 -13.23 -13.16 -13.03 -12.87 -12.70 -12.62 -12.49 -12.44 -12.35 -12.25 -12.14 -12.00 -11.88 -11.74 -11.63 -11.54 -11.48 -11.51 -11.54 -11.45 -11.40 -11.30 -11.19 -11.02 -10.96 -10.93 -10.75 -10.55 -10.50 -10.38 -10.56 -10.74 -10.94 -11.14 -11.19 -11.12 -11.06 -11.01 -10.96 -10.89 -10.82 -10.73 -10.68 -10.60 -10.52 -10.45 -10.32 -10.27 -10.20 -10.17 -10.11 -10.11 -10.08 -10.04 -10.00 -9.95 -9.85 -9.76 -9.71 -9.78 -9.76 -9.74 -9.72 -9.70 -9.68 -9.66 -9.70 -9.72 -9.66 -9.66 -9.60 -9.58 -9.61 -9.61 -9.60 -9.59 -9.60 -9.51 -9.42 -9.38 -9.35 -9.33 -9.32 -9.32 -9.32 -9.39 -9.49 -9.56 -9.62 -9.67 -9.72 -9.77 -9.80 -9.80 -9.79 -9.78 -9.77 -9.76 -9.75 -9.73 -9.72 -9.72 -9.72 -9.70 -9.69 -9.68 -9.65 -9.61 -9.59 -9.58 -9.57 -9.56 -9.55 -9.51 -9.46 -9.45 -9.46 -9.49 -9.50 -9.49 -9.49 -9.48 -9.48 -9.49 -9.47 -9.43 -9.43 -9.47 -9.50 -9.51 -9.49 -9.44 -9.39 -9.35 -9.34 -9.34 -9.32 -9.32 -9.38 -9.40 -9.44 -9.45 -9.46 -9.45 -9.49 -9.52 -9.53 -9.56 -9.59 -9.57 -9.59 -9.57 -9.55 -9.56 -9.57 -9.60 -9.64 -9.66 -9.64 -9.65 -9.66 -9.67 -9.68 -9.70 -9.74 -9.74 -9.75 -9.73 -9.68 -9.69 -9.68 -9.65 -9.60 -9.61 -9.61 -9.59 -9.53 -9.51 -9.50 -9.47 -9.49 -9.47 -9.59 -9.63 -9.64 -9.66 -9.65 -9.68 -9.68 -9.74 -9.76 -9.78 -9.79 -9.80 -9.79 -9.78 -9.78 -9.79 -9.78 -9.76 -9.77 -9.77 -9.77 -9.79 -9.80 -9.83 -9.82 -9.84 -9.82 -9.84 -9.86 -9.84 -9.83 -9.82 -9.83 -9.83 -9.83 -9.81 -9.83 -9.84 -9.81 -9.83 -9.84 -9.82 -9.81 -9.81 -9.79 -9.79 -9.77 -9.75 -9.74 -9.73 -9.74 -9.74 -9.73 -9.71 -9.70 -9.66 -9.63 -9.64 -9.62 -9.62 -9.63 -9.63 -9.62 -9.63 -9.64 -9.63 -9.61 -9.62 -9.60 -9.60 -9.62 -9.62 -9.62 -9.59 -9.57 -9.51 -9.54 -9.53 -9.51 -9.47 -9.46 -9.47 -9.47 -9.45 -9.43 -9.41 -9.39 -9.40 -9.38 -9.38 -9.37 -9.39 -9.38 -9.38 -9.35 -9.36 -9.35 -9.36 -9.34 -9.29 -9.34 -9.33 -9.34 -9.33 -9.33 -9.31 -9.34 -9.31 -9.27 -9.28 -9.27 -9.26 -9.28 -9.30 -9.31 -9.29 -9.29 -9.30 -9.33 -9.32 -9.30 -9.31 -9.34 -9.35 -9.36 -9.31 -9.40 -9.35 -9.37 -9.32 -9.33 -9.30 -9.29 -9.30 -9.29 -9.28 -9.22 -9.26 -9.26 -9.27 -9.25 -9999.00 -9999.00 -9999.00 -9999.00 -9999.00 -9999.00 -9999.00 -9999.00 -9999.00 -9999.00 -9999.00 -9999.00 -9999.00 -9999.00 -9999.00 -9999.00 -9999.00 -9999.00 -9999.00 -9999.00 -9999.00 -9999.00 -9999.00 -9999.00
-13.62 -13.56 -13.55 -13.56 -13.57 -13.56 -13.54 -13.54 -13.50 -13.44 -13.40 -13.35 -13.28 -13.22 -13.19 -13.21 -13.13 -13.08 -13.03 -12.99 -12.98 -12.98 -13.01 -13.07 -13.15 -13.20 -13.23 -13.26 -13.27 -13.28 -13.23 -13.17 -13.09 -12.94 -12.78 -12.63 -12.52 -12.40 -12.31 -12.16 -11.98 -11.86 -11.87 -11.71 -11.55 -11.41 -11.37 -11.39 -11.42 -11.45 -11.36 -11.22 -11.04 -10.90 -10.86 -10.73 -10.70 -10.61 -10.48 -10.52 -10.61 -10.76 -10.90 -11.05 -11.16 -11.18 -11.13 -11.05 -10.95 -10.85 -10.76 -10.69 -10.62 -10.56 -10.50 -10.41 -10.33 -10.27 -10.27 -10.25 -10.18 -10.10 -10.03 -9.97 -9.89 -9.80 -9.73 -9.68 -9.68 -9.71 -9.72 -9.72 -9.71 -9.69 -9.69 -9.69 -9.69 -9.71 -9.73 -9.72 -9.70 -9.63 -9.62 -9.64 -9.60 -9.56 -9.53 -9.54 -9.55 -9.50 -9.47 -9.48 -9.46 -9.46 -9.46 -9.47 -9.50 -9.53 -9.55 -9.58 -9.60 -9.63 -9.65 -9.68 -9.69 -9.69 -9.69 -9.69 -9.69 -9.68 -9.66 -9.66 -9.66 -9.65 -9.62 -9.60 -9.58 -9.56 -9.56 -9.56 -9.56 -9.54 -9.53 -9.51 -9.47 -9.44 -9.42 -9.42 -9.41 -9.41 -9.39 -9.37 -9.38 -9.37 -9.34 -9.34 -9.35 -9.35 -9.35 -9.36 -9.34 -9.26 -9.25 -9.24 -9.25 -9.21 -9.18 -9.17 -9.20 -9.20 -9.24 -9.25 -9.30 -9.31 -9.35 -9.37 -9.40 -9.43 -9.45 -9.47 -9.50 -9.49 -9.51 -9.49 -9.50 -9.49 -9.48 -9.50 -9.53 -9.58 -9.61 -9.58 -9.57 -9.59 -9.60 -9.62 -9.63 -9.63 -9.63 -9.62 -9.59 -9.57 -9.51 -9.52 -9.48 -9.42 -9.43 -9.41 -9.42 -9.38 -9.35 -9.31 -9.38 -9.42 -9.49 -9.52 -9.58 -9.59 -9.62 -9.61 -9.64 -9.65 -9.69 -9.70 -9.73 -9.73 -9.73 -9.73 -9.72 -9.71 -9.72 -9.67 -9.67 -9.71 -9.72 -9.72 -9.76 -9.78 -9.74 -9.78 -9.79 -9.80 -9.80 -9.80 -9.80 -9.79 -9.78 -9.79 -9.79 -9.78 -9.77 -9.79 -9.79 -9.77 -9.79 -9.78 -9.76 -9.75 -9.75 -9.73 -9.74 -9.70 -9.71 -9.70 -9.69 -9.69 -9.68 -9.67 -9.66 -9.64 -9.58 -9.55 -9.58 -9.59 -9.56 -9.61 -9.60 -9.59 -9.60 -9.59 -9.60 -9.58 -9.58 -9.57 -9.56 -9.59 -9.57 -9.56 -9.52 -9.51 -9.48 -9.48 -9.46 -9.44 -9.40 -9.40 -9.40 -9.40 -9.38 -9.37 -9.36 -9.34 -9.32 -9.34 -9.34 -9.32 -9.35 -9.31 -9.30 -9.27 -9.28 -9.27 -9.27 -9.23 -9.27 -9.27 -9.27 -9.28 -9.28 -9.21 -9.23 -9.23 -9.25 -9.21 -9.24 -9.22 -9.21 -9.25 -9.29 -9.30 -9.32 -9.33 -9.28 -9.31 -9.30 -9.28 -9.27 -9.31 -9.32 -9.35 -9.26 -9.34 -9.32 -9.29 -9.26 -9.27 -9.27 -9.27 -9.26 -9.25 -9.18 -9.21 -9.21 -9.22 -9.22 -9.22 -9999.00 -9999.00 -9999.00 -9999.00 -9999.00 -9999.00 -9999.00 -9999.00 -9999.00 -9999.00 -9999.00 -9999.00 -9999.00 -9999.00 -9999.00 -9999.00 -9999.00 -9999.00 -9999.00 -9999.00 -9999.00 -9999.00
-13.46 -13.50 -13.49 -13.51 -13.51 -13.52 -13.49 -13.45 -13.46 -13.36 -13.33 -13.28 -13.25 -13.22 -13.14 -13.08 -13.08 -12.98 -12.88 -12.88 -12.94 -13.00 -13.11 -13.17 -13.19 -13.20 -13.23 -13.22 -13.21 -13.17 -13.11 -13.03 -12.96 -12.80 -12.62 -12.50 -12.37 -12.18 -11.96 -11.80 -11.76 -11.63 -11.56 -11.48 -11.43 -11.36 -11.26 -11.25 -11.29 -11.34 -11.31 -11.07 -10.87 -10.75 -10.72 -10.64 -10.48 -10.63 -10.69 -10.71 -10.72 -10.83 -10.94 -11.01 -11.07 -11.07 -10.99 -10.92 -10.85 -10.78 -10.72 -10.65 -10.58 -10.51 -10.43 -10.35 -10.30 -10.25 -10.19 -10.11 -10.05 -9.97 -9.89 -9.83 -9.77 -9.68 -9.61 -9.67 -9.66 -9.65 -9.69 -9.69 -9.70 -9.71 -9.74 -9.74 -9.70 -9.66 -9.67 -9.65 -9.62 -9.59 -9.57 -9.55 -9.54 -9.52 -9.51 -9.49 -9.47 -9.46 -9.47 -9.46 -9.45 -9.45 -9.45 -9.44 -9.45 -9.47 -9.48 -9.50 -9.52 -9.54 -9.56 -9.58 -9.58 -9.59 -9.59 -9.59 -9.59 -9.59 -9.59 -9.58 -9.57 -9.54 -9.52 -9.47 -9.43 -9.39 -9.38 -9.39 -9.41 -9.42 -9.43 -9.43 -9.43 -9.44 -9.40 -9.35 -9.33 -9.32 -9.26 -9.23 -9.22 -9.25 -9.26 -9.24 -9.24 -9.23 -9.21 -9.20 -9.21 -9.18 -9.15 -9.12 -9.09 -9.04 -8.97 -9.02 -9.06 -9.09 -9.12 -9.15 -9.17 -9.21 -9.18 -9.26 -9.29 -9.27 -9.31 -9.32 -9.39 -9.40 -9.38 -9.34 -9.39 -9.38 -9.44 -9.45 -9.45 -9.46 -9.48 -9.52 -9.54 -9.55 -9.53 -9.54 -9.52 -9.54 -9.54 -9.51 -9.48 -9.48 -9.45 -9.43 -9.38 -9.37 -9.32 -9.27 -9.23 -9.23 -9.25 -9.24 -9.26 -9.30 -9.38 -9.45 -9.47 -9.49 -9.52 -9.55 -9.57 -9.58 -9.59 -9.62 -9.64 -9.65 -9.67 -9.67 -9.65 -9.65 -9.64 -9.64 -9.64 -9.54 -9.61 -9.67 -9.69 -9.69 -9.72 -9.74 -9.73 -9.73 -9.75 -9.76 -9.73 -9.73 -9.75 -9.75 -9.74 -9.75 -9.75 -9.74 -9.72 -9.74 -9.74 -9.72 -9.74 -9.70 -9.71 -9.69 -9.69 -9.67 -9.66 -9.64 -9.65 -9.63 -9.62 -9.63 -9.63 -9.62 -9.61 -9.63 -9.59 -9.56 -9.58 -9.55 -9.55 -9.54 -9.55 -9.54 -9.56 -9.54 -9.56 -9.54 -9.53 -9.53 -9.51 -9.51 -9.50 -9.48 -9.46 -9.43 -9.41 -9.39 -9.38 -9.37 -9.33 -9.34 -9.33 -9.33 -9.32 -9.31 -9.30 -9.31 -9.26 -9.28 -9.28 -9.26 -9.25 -9.22 -9.23 -9.20 -9.23 -9.23 -9.20 -9.23 -9.26 -9.23 -9.22 -9.20 -9.17 -9.17 -9.21 -9.20 -9.12 -9.13 -9.20 -9.20 -9.21 -9.25 -9.28 -9.27 -9.32 -9.31 -9.27 -9.29 -9.28 -9.26 -9.24 -9.25 -9.27 -9.28 -9.22 -9.24 -9.26 -9.24 -9.24 -9.24 -9.22 -9.22 -9.18 -9.19 -9.11 -9.17 -9.18 -9.16 -9.19 -9.17 -9999.00 -9999.00 -9999.00 -9999.00 -9999.00 -9999.00 -9999.00 -9999.00 -9999.00 -9999.00 -9999.00 -9999.00 -9999.00 -9999.00 -9999.00 -9999.00 -9999.00 -9999.00 -9999.00 -9999.00
-13.36 -13.37 -13.39 -13.44 -13.45 -13.45 -13.43 -13.37 -13.34 -13.33 -13.23 -13.17 -13.14 -13.09 -13.13 -13.05 -12.99 -12.94 -12.94 -12.96 -13.02 -13.06 -13.08 -13.11 -13.13 -13.16 -13.17 -13.15 -13.07 -13.01 -12.94 -12.86 -12.72 -12.57 -12.42 -12.31 -12.20 -12.00 -11.74 -11.50 -11.51 -11.45 -11.38 -11.28 -11.22 -11.23 -11.13 -11.05 -11.13 -11.21 -11.20 -10.99 -10.85 -10.70 -10.68 -10.66 -10.67 -10.69 -10.76 -10.79 -10.80 -10.83 -10.85 -10.87 -10.91 -10.97 -10.90 -10.83 -10.76 -10.69 -10.63 -10.56 -10.46 -10.40 -10.34 -10.29 -10.25 -10.20 -10.14 -10.07 -10.03 -9.94 -9.88 -9.82 -9.77 -9.68 -9.60 -9.63 -9.63 -9.67 -9.69 -9.76 -9.69 -9.69 -9.67 -9.65 -9.64 -9.68 -9.69 -9.67 -9.60 -9.52 -9.52 -9.54 -9.55 -9.52 -9.50 -9.48 -9.38 -9.35 -9.35 -9.34 -9.34 -9.35 -9.35 -9.35 -9.37 -9.39 -9.42 -9.44 -9.45 -9.47 -9.49 -9.50 -9.50 -9.51 -9.51 -9.51 -9.51 -9.51 -9.50 -9.48 -9.47 -9.45 -9.43 -9.42 -9.40 -9.39 -9.37 -9.37 -9.36 -9.34 -9.32 -9.33 -9.33 -9.33 -9.35 -9.34 -9.31 -9.27 -9.24 -9.20 -9.19 -9.17 -9.09 -9.07 -9.09 -9.10 -9.09 -9.08 -9.06 -9.04 -9.01 -8.99 -8.96 -8.93 -8.90 -8.91 -8.95 -8.98 -9.01 -9.02 -9.06 -9.08 -9.09 -9.12 -9.16 -9.18 -9.23 -9.27 -9.27 -9.21 -9.22 -9.21 -9.27 -9.23 -9.21 -9.33 -9.37 -9.42 -9.42 -9.42 -9.43 -9.46 -9.48 -9.51 -9.44 -9.40 -9.39 -9.41 -9.44 -9.41 -9.35 -9.31 -9.30 -9.28 -9.25 -9.21 -9.18 -9.12 -9.07 -9.10 -9.16 -9.23 -9.28 -9.32 -9.35 -9.42 -9.44 -9.45 -9.47 -9.50 -9.53 -9.54 -9.55 -9.59 -9.58 -9.59 -9.60 -9.58 -9.56 -9.55 -9.56 -9.58 -9.60 -9.54 -9.60 -9.65 -9.67 -9.67 -9.67 -9.72 -9.71 -9.66 -9.70 -9.71 -9.68 -9.65 -9.70 -9.70 -9.69 -9.70 -9.69 -9.68 -9.66 -9.69 -9.69 -9.68 -9.67 -9.63 -9.65 -9.64 -9.62 -9.61 -9.57 -9.61 -9.59 -9.58 -9.58 -9.59 -9.59 -9.56 -9.57 -9.56 -9.57 -9.53 -9.53 -9.52 -9.49 -9.48 -9.50 -9.50 -9.52 -9.50 -9.51 -9.49 -9.46 -9.47 -9.47 -9.44 -9.41 -9.38 -9.38 -9.33 -9.33 -9.30 -9.30 -9.28 -9.26 -9.27 -9.26 -9.26 -9.24 -9.24 -9.25 -9.22 -9.21 -9.20 -9.22 -9.18 -9.15 -9.14 -9.17 -9.17 -9.18 -9.17 -9.16 -9.18 -9.20 -9.15 -9.14 -9.11 -9.12 -9.15 -9.12 -9.14 -9.10 -9.15 -9.21 -9.21 -9.25 -9.25 -9.23 -9.28 -9.27 -9.27 -9.25 -9.27 -9.26 -9.24 -9.19 -9.20 -9.20 -9.17 -9.18 -9.21 -9.21 -9.20 -9.21 -9.20 -9.18 -9.18 -9.18 -9.07 -9.10 -9.14 -9.16 -9.14 -9.14 -9999.00 -9999.00 -9999.00 -9999.00 -9999.00 -9999.00 -9999.00 -9999.00 -9999.00 -9999.00 -9999.00 -9999.00 -9999.00 -9999.00 -9999.00 -9999.00 -9999.00 -9999.00 -9999.00
-13.28 -13.26 -13.34 -13.38 -13.39 -13.36 -13.33 -13.28 -13.26 -13.25 -13.18 -13.13 -13.12 -13.09 -13.06 -13.04 -13.00 -12.99 -12.98 -12.94 -12.98 -12.97 -13.00 -13.05 -13.07 -13.07 -13.02 -12.95 -12.90 -12.85 -12.82 -12.64 -12.47 -12.35 -12.26 -12.14 -12.02 -11.81 -11.62 -11.42 -11.28 -11.22 -11.22 -11.24 -11.26 -11.17 -11.09 -11.06 -11.04 -11.06 -11.08 -10.91 -10.78 -10.59 -10.54 -10.62 -10.65 -10.75 -10.75 -10.78 -10.78 -10.81 -10.84 -10.88 -10.91 -10.92 -10.85 -10.76 -10.67 -10.60 -10.58 -10.50 -10.45 -10.36 -10.28 -10.23 -10.20 -10.18 -10.13 -10.12 -10.06 -9.94 -9.83 -9.81 -9.76 -9.66 -9.61 -9.59 -9.63 -9.66 -9.69 -9.70 -9.66 -9.69 -9.71 -9.70 -9.65 -9.61 -9.54 -9.56 -9.55 -9.55 -9.52 -9.47 -9.44 -9.41 -9.35 -9.29 -9.24 -9.26 -9.28 -9.30 -9.31 -9.32 -9.34 -9.36 -9.37 -9.38 -9.40 -9.40 -9.37 -9.37 -9.38 -9.37 -9.38 -9.38 -9.39 -9.39 -9.40 -9.40 -9.41 -9.39 -9.35 -9.33 -9.31 -9.30 -9.29 -9.26 -9.24 -9.24 -9.23 -9.22 -9.23 -9.23 -9.22 -9.20 -9.15 -9.17 -9.13 -9.12 -9.12 -9.11 -9.09 -9.07 -9.04 -9.03 -9.02 -9.01 -8.97 -8.96 -8.95 -8.92 -8.87 -8.84 -8.79 -8.80 -8.78 -8.80 -8.85 -8.89 -8.93 -8.96 -9.01 -9.02 -9.00 -8.99 -9.00 -9.04 -9.05 -9.11 -9.13 -9.15 -9.14 -9.11 -9.10 -9.12 -9.16 -9.24 -9.25 -9.26 -9.31 -9.37 -9.40 -9.39 -9.39 -9.39 -9.37 -9.33 -9.27 -9.24 -9.22 -9.27 -9.25 -9.25 -9.21 -9.16 -9.13 -9.10 -9.09 -9.07 -9.04 -9.05 -9.05 -9.08 -9.16 -9.24 -9.23 -9.33 -9.31 -9.38 -9.41 -9.42 -9.44 -9.46 -9.47 -9.50 -9.50 -9.55 -9.52 -9.49 -9.51 -9.50 -9.48 -9.50 -9.54 -9.56 -9.57 -9.54 -9.58 -9.62 -9.65 -9.64 -9.61 -9.65 -9.64 -9.63 -9.65 -9.67 -9.64 -9.61 -9.64 -9.65 -9.65 -9.66 -9.65 -9.64 -9.63 -9.61 -9.63 -9.60 -9.55 -9.58 -9.57 -9.56 -9.53 -9.52 -9.54 -9.56 -9.54 -9.54 -9.54 -9.54 -9.51 -9.51 -9.52 -9.50 -9.50 -9.48 -9.46 -9.47 -9.47 -9.42 -9.45 -9.46 -9.47 -9.43 -9.45 -9.40 -9.40 -9.40 -9.37 -9.36 -9.33 -9.31 -9.29 -9.25 -9.25 -9.21 -9.21 -9.20 -9.20 -9.20 -9.19 -9.19 -9.16 -9.17 -9.17 -9.17 -9.14 -9.14 -9.17 -9.12 -9.12 -9.14 -9.13 -9.16 -9.11 -9.11 -9.09 -9.11 -9.12 -9.08 -9.07 -9.04 -9.05 -9.09 -9.12 -9.07 -9.14 -9.18 -9.20 -9.24 -9.23 -9.20 -9.21 -9.22 -9.22 -9.24 -9.22 -9.23 -9.20 -9.18 -9.15 -9.15 -9.14 -9.13 -9.16 -9.17 -9.17 -9.16 -9.17 -9.15 -9.13 -9.14 -9.12 -9.07 -9.12 -9.12 -9.11 -9.12 -9.11 -9999.00 -9999.00 -9999.00 -9999.00 -9999.00 -9999.00 -9999.00 -9999.00 -9999.00 -9999.00 -9999.00 -9999.00 -9999.00 -9999.00 -9999.00 -9999.00 -9999.00
-13.24 -13.25 -13.30 -13.35 -13.27 -13.26 -13.25 -13.23 -13.17 -13.16 -13.14 -13.10 -13.08 -13.06 -13.04 -13.00 -12.97 -12.96 -12.91 -12.84 -12.83 -12.88 -12.94 -12.99 -12.97 -12.90 -12.83 -12.78 -12.73 -12.64 -12.53 -12.42 -12.26 -12.11 -12.00 -11.92 -11.79 -11.63 -11.43 -11.22 -11.06 -11.08 -11.11 -11.15 -11.12 -11.07 -11.00 -10.89 -10.89 -10.94 -10.97 -10.84 -10.64 -10.47 -10.41 -10.52 -10.58 -10.64 -10.74 -10.74 -10.76 -10.82 -10.86 -10.87 -10.82 -10.79 -10.69 -10.66 -10.60 -10.58 -10.48 -10.43 -10.37 -10.32 -10.28 -10.25 -10.18 -10.08 -10.02 -10.01 -10.00 -9.90 -9.83 -9.79 -9.74 -9.68 -9.59 -9.59 -9.61 -9.65 -9.72 -9.77 -9.67 -9.55 -9.59 -9.57 -9.55 -9.56 -9.54 -9.50 -9.52 -9.50 -9.40 -9.34 -9.34 -9.34 -9.33 -9.35 -9.37 -9.37 -9.36 -9.36 -9.39 -9.41 -9.42 -9.43 -9.43 -9.42 -9.41 -9.40 -9.39 -9.39 -9.38 -9.38 -9.36 -9.35 -9.33 -9.32 -9.31 -9.29 -9.26 -9.24 -9.20 -9.18 -9.15 -9.10 -9.07 -9.08 -9.06 -9.05 -9.02 -8.99 -8.98 -8.98 -8.98 -8.99 -9.02 -9.03 -9.06 -9.06 -9.02 -9.01 -9.02 -8.96 -8.98 -8.99 -8.96 -8.93 -8.89 -8.87 -8.86 -8.83 -8.79 -8.76 -8.74 -8.71 -8.64 -8.67 -8.70 -8.77 -8.83 -8.88 -8.93 -8.94 -8.93 -8.95 -8.96 -8.96 -8.94 -8.91 -8.93 -8.97 -8.97 -8.97 -8.99 -8.99 -9.04 -9.09 -9.16 -9.20 -9.26 -9.27 -9.30 -9.32 -9.36 -9.32 -9.28 -9.23 -9.16 -9.17 -9.10 -9.12 -9.11 -9.13 -9.12 -9.07 -9.06 -9.03 -8.96 -8.95 -8.93 -8.98 -9.02 -9.03 -9.08 -9.11 -9.14 -9.23 -9.27 -9.32 -9.33 -9.36 -9.37 -9.38 -9.40 -9.40 -9.41 -9.44 -9.43 -9.46 -9.45 -9.40 -9.44 -9.47 -9.47 -9.50 -9.53 -9.54 -9.55 -9.55 -9.57 -9.57 -9.63 -9.58 -9.58 -9.58 -9.59 -9.58 -9.58 -9.60 -9.59 -9.57 -9.59 -9.60 -9.59 -9.60 -9.59 -9.57 -9.56 -9.54 -9.54 -9.51 -9.50 -9.51 -9.51 -9.50 -9.48 -9.45 -9.51 -9.49 -9.49 -9.49 -9.50 -9.45 -9.44 -9.46 -9.46 -9.44 -9.43 -9.44 -9.42 -9.41 -9.43 -9.39 -9.38 -9.39 -9.36 -9.34 -9.34 -9.29 -9.30 -9.30 -9.28 -9.26 -9.25 -9.23 -9.20 -9.18 -9.17 -9.15 -9.14 -9.13 -9.15 -9.10 -9.12 -9.12 -9.08 -9.10 -9.09 -9.08 -9.07 -9.08 -9.09 -9.08 -9.11 -9.11 -9.07 -9.06 -9.02 -9.02 -9.03 -9.05 -9.04 -8.99 -8.97 -8.99 -9.09 -9.08 -9.10 -9.13 -9.15 -9.18 -9.17 -9.20 -9.18 -9.18 -9.17 -9.17 -9.15 -9.18 -9.17 -9.18 -9.13 -9.13 -9.14 -9.12 -9.12 -9.12 -9.14 -9.14 -9.13 -9.12 -9.14 -9.09 -9.10 -9.11 -9.10 -9.05 -9.07 -9.09 -9.10 -9.07 -9.08 -9999.00 -9999.00 -9999.00 -9999.00 -9999.00 -9999.00 -9999.00 -9999.00 -9999.00 -9999.00 -9999.00 -9999.00 -9999.00 -9999.00 -9999.00
-13.16 -13.29 -13.23 -13.20 -13.20 -13.17 -13.13 -13.11 -13.12 -13.13 -13.14 -13.07 -13.04 -12.99 -12.95 -12.94 -12.90 -12.85 -12.84 -12.85 -12.81 -12.83 -12.85 -12.85 -12.78 -12.70 -12.65 -12.55 -12.45 -12.35 -12.24 -12.13 -12.03 -11.94 -11.83 -11.71 -11.55 -11.38 -11.19 -11.02 -10.89 -10.96 -11.02 -11.06 -11.01 -10.99 -10.89 -10.81 -10.76 -10.81 -10.80 -10.71 -10.56 -10.42 -10.38 -10.50 -10.54 -10.58 -10.60 -10.68 -10.72 -10.73 -10.80 -10.77 -10.77 -10.75 -10.71 -10.68 -10.59 -10.51 -10.47 -10.45 -10.39 -10.26 -10.17 -10.15 -10.12 -10.05 -10.02 -10.03 -9.98 -9.93 -9.85 -9.78 -9.73 -9.67 -9.62 -9.64 -9.64 -9.61 -9.66 -9.66 -9.64 -9.55 -9.54 -9.52 -9.49 -9.44 -9.40 -9.37 -9.35 -9.42 -9.41 -9.40 -9.39 -9.38 -9.37 -9.36 -9.34 -9.35 -9.36 -9.38 -9.39 -9.40 -9.41 -9.41 -9.40 -9.39 -9.37 -9.35 -9.33 -9.32 -9.32 -9.31 -9.30 -9.28 -9.25 -9.22 -9.20 -9.17 -9.14 -9.11 -9.07 -9.02 -8.99 -8.95 -8.91 -8.89 -8.89 -8.91 -8.92 -8.88 -8.88 -8.86 -8.83 -8.81 -8.83 -8.86 -8.90 -8.93 -8.94 -8.94 -8.92 -8.94 -8.96 -8.94 -8.94 -8.91 -8.90 -8.90 -8.83 -8.78 -8.73 -8.70 -8.66 -8.62 -8.60 -8.64 -8.67 -8.68 -8.71 -8.77 -8.82 -8.84 -8.83 -8.86 -8.86 -8.88 -8.85 -8.89 -8.88 -8.87 -8.84 -8.84 -8.85 -8.89 -8.96 -9.01 -9.06 -9.10 -9.14 -9.17 -9.23 -9.28 -9.30 -9.25 -9.21 -9.14 -9.11 -9.07 -9.05 -9.05 -9.04 -9.04 -9.03 -9.01 -9.00 -8.92 -8.90 -8.88 -8.89 -8.89 -8.94 -8.97 -9.02 -9.03 -9.10 -9.13 -9.15 -9.24 -9.29 -9.26 -9.32 -9.35 -9.32 -9.36 -9.36 -9.36 -9.36 -9.37 -9.36 -9.38 -9.41 -9.40 -9.43 -9.46 -9.47 -9.49 -9.53 -9.52 -9.53 -9.53 -9.53 -9.53 -9.56 -9.57 -9.52 -9.53 -9.55 -9.54 -9.53 -9.56 -9.54 -9.54 -9.53 -9.55 -9.54 -9.54 -9.50 -9.50 -9.50 -9.48 -9.48 -9.46 -9.43 -9.44 -9.45 -9.40 -9.40 -9.43 -9.45 -9.47 -9.47 -9.44 -9.42 -9.38 -9.37 -9.38 -9.39 -9.37 -9.37 -9.38 -9.37 -9.33 -9.35 -9.32 -9.31 -9.29 -9.27 -9.26 -9.26 -9.20 -9.21 -9.22 -9.21 -9.18 -9.16 -9.15 -9.11 -9.08 -9.09 -9.07 -9.08 -9.08 -9.08 -9.05 -9.05 -9.05 -9.01 -9.03 -9.03 -9.03 -9.02 -9.01 -9.00 -9.02 -9.03 -9.00 -9.01 -8.97 -8.90 -8.95 -8.96 -8.98 -8.99 -8.99 -9.04 -9.06 -9.06 -9.07 -9.06 -9.13 -9.14 -9.14 -9.13 -9.16 -9.15 -9.14 -9.14 -9.14 -9.12 -9.14 -9.11 -9.14 -9.09 -9.10 -9.10 -9.08 -9.11 -9.11 -9.12 -9.12 -9.09 -9.09 -9.09 -9.07 -9.06 -9.09 -9.08 -9.06 -9.06 -9.07 -9.07 -9.08 -9.05 -9999.00 -9999.00 -9999.00 -9999.00 -9999.00 -9999.00 -9999.00 -9999.00 -9999.00 -9999.00 -9999.00 -9999.00 -9999.00
-13.09 -13.10 -13.21 -13.07 -13.03 -13.05 -13.01 -13.02 -13.05 -13.02 -12.99 -12.97 -12.93 -12.85 -12.80 -12.79 -12.82 -12.79 -12.74 -12.68 -12.67 -12.64 -12.60 -12.57 -12.57 -12.48 -12.38 -12.32 -12.21 -12.11 -12.03 -11.98 -11.89 -11.78 -11.70 -11.54 -11.39 -11.29 -11.12 -11.03 -10.97 -10.93 -10.98 -11.01 -11.06 -11.03 -10.84 -10.78 -10.64 -10.69 -10.66 -10.62 -10.50 -10.44 -10.45 -10.48 -10.56 -10.58 -10.48 -10.52 -10.63 -10.68 -10.74 -10.71 -10.68 -10.63 -10.64 -10.67 -10.59 -10.45 -10.36 -10.33 -10.28 -10.23 -10.15 -10.13 -10.08 -10.04 -9.97 -9.94 -9.95 -9.93 -9.86 -9.79 -9.75 -9.71 -9.68 -9.63 -9.59 -9.56 -9.51 -9.46 -9.45 -9.48 -9.46 -9.45 -9.45 -9.45 -9.45 -9.43 -9.42 -9.40 -9.40 -9.40 -9.40 -9.39 -9.39 -9.38 -9.38 -9.37 -9.37 -9.36 -9.35 -9.34 -9.33 -9.34 -9.34 -9.32 -9.31 -9.29 -9.27 -9.26 -9.24 -9.22 -9.18 -9.13 -9.10 -9.07 -9.04 -9.01 -8.97 -8.89 -8.82 -8.75 -8.70 -8.64 -8.59 -8.54 -8.59 -8.66 -8.75 -8.76 -8.78 -8.77 -8.76 -8.78 -8.80 -8.81 -8.83 -8.84 -8.88 -8.89 -8.89 -8.91 -8.92 -8.91 -8.90 -8.90 -8.94 -8.89 -8.82 -8.75 -8.73 -8.68 -8.65 -8.61 -8.60 -8.60 -8.62 -8.59 -8.68 -8.69 -8.73 -8.69 -8.74 -8.77 -8.80 -8.81 -8.77 -8.81 -8.81 -8.78 -8.79 -8.78 -8.77 -8.81 -8.87 -8.92 -8.99 -9.04 -9.09 -9.12 -9.16 -9.20 -9.19 -9.20 -9.19 -9.13 -9.03 -9.06 -8.96 -8.99 -8.98 -8.93 -8.98 -8.96 -8.96 -8.91 -8.89 -8.83 -8.77 -8.83 -8.87 -8.87 -8.92 -8.97 -9.03 -9.05 -9.11 -9.15 -9.17 -9.26 -9.30 -9.30 -9.32 -9.34 -9.30 -9.33 -9.33 -9.32 -9.30 -9.31 -9.34 -9.36 -9.39 -9.42 -9.43 -9.45 -9.46 -9.49 -9.50 -9.49 -9.50 -9.49 -9.49 -9.49 -9.49 -9.52 -9.48 -9.48 -9.51 -9.49 -9.50 -9.51 -9.49 -9.49 -9.48 -9.48 -9.46 -9.46 -9.44 -9.43 -9.43 -9.40 -9.34 -9.37 -9.39 -9.39 -9.38 -9.38 -9.40 -9.42 -9.39 -9.42 -9.41 -9.37 -9.34 -9.30 -9.30 -9.31 -9.33 -9.30 -9.32 -9.30 -9.28 -9.26 -9.26 -9.21 -9.22 -9.19 -9.17 -9.18 -9.14 -9.12 -9.11 -9.11 -9.12 -9.10 -9.10 -9.05 -9.03 -9.02 -9.03 -9.03 -9.02 -9.01 -9.02 -9.01 -9.00 -8.99 -8.98 -8.97 -9.00 -9.00 -8.97 -8.95 -8.95 -8.96 -8.95 -8.94 -8.93 -8.91 -8.79 -8.91 -8.96 -8.98 -9.00 -9.01 -9.06 -9.05 -9.05 -9.06 -9.08 -9.11 -9.11 -9.11 -9.11 -9.11 -9.10 -9.09 -9.10 -9.02 -9.08 -9.09 -9.10 -9.08 -9.07 -9.07 -9.07 -9.04 -9.09 -9.10 -9.08 -9.08 -9.08 -9.06 -9.08 -9.04 -9.06 -9.07 -9.01 -9.04 -9.04 -9.04 -9.03 -9.04 -9999.00 -9999.00 -9999.00 -9999.00 -9999.00 -9999.00 -9999.00 -9999.00 -9999.00 -9999.00 -9999.00 -9999.00
-12.96 -12.96 -12.94 -12.98 -12.94 -12.93 -12.91 -12.89 -12.87 -12.87 -12.83 -12.77 -12.71 -12.61 -12.59 -12.64 -12.59 -12.56 -12.52 -12.45 -12.41 -12.40 -12.38 -12.35 -12.37 -12.26 -12.18 -12.06 -12.01 -11.94 -11.82 -11.81 -11.71 -11.67 -11.47 -11.32 -11.22 -11.12 -11.03 -10.95 -10.94 -10.87 -10.92 -10.86 -10.90 -10.85 -10.72 -10.68 -10.66 -10.58 -10.53 -10.54 -10.50 -10.49 -10.43 -10.40 -10.39 -10.41 -10.50 -10.48 -10.55 -10.55 -10.54 -10.57 -10.59 -10.51 -10.52 -10.50 -10.45 -10.37 -10.30 -10.26 -10.20 -10.10 -10.03 -9.97 -9.89 -9.90 -9.90 -9.88 -9.87 -9.84 -9.80 -9.76 -9.72 -9.66 -9.60 -9.54 -9.51 -9.51 -9.49 -9.50 -9.49 -9.49 -9.47 -9.43 -9.41 -9.47 -9.45 -9.43 -9.39 -9.45 -9.42 -9.39 -9.36 -9.35 -9.34 -9.33 -9.33 -9.30 -9.28 -9.27 -9.25 -9.24 -9.23 -9.21 -9.22 -9.22 -9.23 -9.21 -9.20 -9.19 -9.17 -9.15 -9.09 -9.03 -8.97 -8.91 -8.86 -8.82 -8.78 -8.67 -8.60 -8.54 -8.46 -8.37 -8.28 -8.21 -8.30 -8.40 -8.49 -8.59 -8.66 -8.71 -8.74 -8.75 -8.76 -8.78 -8.80 -8.81 -8.83 -8.85 -8.85 -8.89 -8.92 -8.94 -8.94 -8.94 -8.95 -8.87 -8.82 -8.76 -8.76 -8.66 -8.61 -8.54 -8.59 -8.61 -8.62 -8.62 -8.64 -8.65 -8.59 -8.66 -8.65 -8.67 -8.69 -8.65 -8.71 -8.75 -8.79 -8.75 -8.74 -8.76 -8.70 -8.77 -8.81 -8.87 -8.93 -8.98 -9.04 -9.08 -9.13 -9.20 -9.17 -9.11 -9.09 -9.08 -9.05 -9.04 -8.95 -8.93 -8.96 -8.93 -8.90 -8.87 -8.90 -8.88 -8.88 -8.84 -8.83 -8.80 -8.77 -8.79 -8.84 -8.90 -8.95 -8.99 -9.06 -9.08 -9.10 -9.16 -9.19 -9.27 -9.28 -9.32 -9.31 -9.32 -9.30 -9.31 -9.29 -9.29 -9.30 -9.31 -9.35 -9.38 -9.41 -9.40 -9.43 -9.44 -9.45 -9.46 -9.45 -9.46 -9.47 -9.43 -9.41 -9.44 -9.46 -9.47 -9.44 -9.44 -9.47 -9.45 -9.46 -9.44 -9.44 -9.42 -9.41 -9.39 -9.39 -9.38 -9.36 -9.37 -9.37 -9.32 -9.27 -9.30 -9.33 -9.33 -9.33 -9.35 -9.37 -9.37 -9.33 -9.34 -9.30 -9.29 -9.27 -9.22 -9.24 -9.24 -9.26 -9.23 -9.23 -9.20 -9.19 -9.17 -9.16 -9.14 -9.09 -9.10 -9.08 -9.08 -9.05 -9.04 -9.03 -9.02 -9.04 -9.01 -9.05 -8.96 -8.95 -8.96 -8.97 -8.96 -8.93 -8.94 -8.95 -8.97 -8.95 -8.94 -8.96 -8.94 -8.96 -8.93 -8.91 -8.89 -8.89 -8.89 -8.87 -8.87 -8.84 -8.84 -8.88 -8.93 -8.96 -9.00 -8.99 -9.03 -9.06 -9.03 -9.06 -9.04 -9.07 -9.07 -9.07 -9.07 -9.06 -9.05 -9.05 -9.05 -9.07 -9.00 -9.07 -9.06 -9.07 -9.06 -9.06 -9.06 -9.04 -9.01 -9.06 -9.03 -9.03 -9.03 -9.04 -9.04 -9.03 -9.03 -9.04 -8.99 -9.01 -9.02 -9.02 -9.01 -9.04 -9.01 -9999.00 -9999.00 -9999.00 -9999.00 -9999.00 -9999.00 -9999.00 -9999.00 -9999.00 -9999.00
-12.83 -12.83 -12.84 -12.85 -12.85 -12.82 -12.76 -12.76 -12.73 -12.68 -12.63 -12.56 -12.49 -12.40 -12.39 -12.38 -12.31 -12.26 -12.24 -12.25 -12.24 -12.17 -12.15 -12.13 -12.13 -12.03 -11.98 -11.91 -11.82 -11.76 -11.79 -11.64 -11.53 -11.40 -11.24 -11.18 -11.08 -11.02 -10.97 -10.93 -10.86 -10.81 -10.75 -10.76 -10.82 -10.77 -10.68 -10.63 -10.54 -10.45 -10.48 -10.50 -10.40 -10.35 -10.35 -10.32 -10.33 -10.35 -10.37 -10.39 -10.36 -10.36 -10.38 -10.44 -10.45 -10.43 -10.42 -10.37 -10.28 -10.24 -10.19 -10.14 -10.03 -9.88 -9.88 -9.87 -9.88 -9.84 -9.84 -9.84 -9.88 -9.87 -9.81 -9.77 -9.69 -9.60 -9.53 -9.50 -9.53 -9.52 -9.48 -9.45 -9.42 -9.37 -9.33 -9.32 -9.35 -9.37 -9.39 -9.41 -9.42 -9.43 -9.40 -9.36 -9.33 -9.30 -9.27 -9.24 -9.20 -9.19 -9.18 -9.17 -9.17 -9.16 -9.15 -9.14 -9.12 -9.09 -9.07 -9.05 -9.02 -9.00 -8.98 -8.96 -8.92 -8.85 -8.78 -8.70 -8.62 -8.59 -8.53 -8.41 -8.31 -8.23 -8.13 -8.04 -7.96 -7.87 -7.99 -8.10 -8.22 -8.34 -8.46 -8.58 -8.69 -8.69 -8.69 -8.71 -8.72 -8.74 -8.77 -8.80 -8.84 -8.87 -8.89 -8.91 -8.96 -8.99 -9.00 -8.92 -8.88 -8.83 -8.77 -8.70 -8.65 -8.59 -8.62 -8.59 -8.61 -8.63 -8.63 -8.64 -8.62 -8.59 -8.57 -8.56 -8.58 -8.58 -8.58 -8.65 -8.62 -8.69 -8.72 -8.75 -8.76 -8.74 -8.76 -8.80 -8.83 -8.87 -8.93 -9.02 -9.09 -9.14 -9.13 -9.11 -9.07 -9.04 -8.97 -8.93 -8.95 -8.93 -8.90 -8.87 -8.90 -8.86 -8.81 -8.80 -8.76 -8.81 -8.82 -8.80 -8.78 -8.77 -8.79 -8.82 -8.88 -8.94 -8.99 -9.03 -9.08 -9.10 -9.11 -9.18 -9.21 -9.26 -9.27 -9.29 -9.27 -9.30 -9.28 -9.29 -9.28 -9.30 -9.32 -9.34 -9.37 -9.39 -9.42 -9.40 -9.41 -9.42 -9.43 -9.43 -9.40 -9.41 -9.39 -9.33 -9.37 -9.39 -9.43 -9.42 -9.40 -9.40 -9.40 -9.39 -9.41 -9.38 -9.35 -9.35 -9.33 -9.31 -9.31 -9.31 -9.30 -9.30 -9.27 -9.28 -9.26 -9.27 -9.31 -9.29 -9.29 -9.29 -9.28 -9.28 -9.26 -9.27 -9.20 -9.22 -9.21 -9.15 -9.17 -9.18 -9.18 -9.14 -9.14 -9.12 -9.10 -9.08 -9.05 -9.04 -9.00 -9.00 -8.99 -8.99 -8.98 -8.97 -8.94 -8.96 -8.95 -8.94 -8.94 -8.91 -8.92 -8.90 -8.92 -8.88 -8.87 -8.90 -8.91 -8.91 -8.92 -8.90 -8.89 -8.89 -8.87 -8.85 -8.85 -8.83 -8.83 -8.81 -8.81 -8.86 -8.89 -8.88 -8.94 -8.98 -8.94 -8.99 -8.99 -9.03 -9.03 -9.04 -9.02 -9.03 -9.03 -9.02 -9.03 -9.01 -9.00 -9.00 -9.02 -9.03 -9.04 -9.01 -9.05 -9.03 -9.04 -9.04 -9.02 -9.04 -9.01 -9.00 -8.98 -9.01 -8.99 -8.99 -9.01 -9.01 -8.99 -9.01 -9.00 -8.98 -8.99 -9.01 -8.98 -8.99 -9.00 -9999.00 -9999.00 -9999.00 -9999.00 -9999.00 -9999.00 -9999.00 -9999.00 -9999.00
-12.71 -12.72 -12.72 -12.77 -12.66 -12.66 -12.66 -12.60 -12.56 -12.51 -12.47 -12.35 -12.30 -12.24 -12.14 -12.13 -12.11 -12.11 -12.10 -12.10 -12.02 -11.98 -11.94 -11.92 -11.93 -11.89 -11.81 -11.75 -11.68 -11.60 -11.53 -11.44 -11.33 -11.24 -11.11 -10.99 -10.92 -10.97 -10.89 -10.81 -10.79 -10.76 -10.70 -10.70 -10.75 -10.72 -10.65 -10.56 -10.47 -10.44 -10.42 -10.36 -10.31 -10.35 -10.29 -10.23 -10.15 -10.23 -10.19 -10.24 -10.24 -10.28 -10.27 -10.27 -10.31 -10.30 -10.31 -10.28 -10.22 -10.13 -10.09 -10.00 -9.90 -9.85 -9.72 -9.79 -9.83 -9.84 -9.81 -9.80 -9.77 -9.74 -9.71 -9.67 -9.65 -9.60 -9.57 -9.54 -9.47 -9.42 -9.42 -9.37 -9.39 -9.37 -9.37 -9.38 -9.38 -9.37 -9.36 -9.39 -9.42 -9.30 -9.27 -9.23 -9.19 -9.15 -9.12 -9.09 -9.07 -9.06 -9.04 -9.03 -9.01 -8.99 -8.98 -8.96 -8.95 -8.93 -8.91 -8.90 -8.88 -8.86 -8.84 -8.82 -8.75 -8.68 -8.60 -8.54 -8.46 -8.39 -8.31 -8.23 -8.14 -8.04 -7.94 -7.82 -7.71 -7.60 -7.74 -7.89 -8.03 -8.14 -8.27 -8.42 -8.56 -8.59 -8.61 -8.62 -8.63 -8.64 -8.67 -8.70 -8.72 -8.75 -8.79 -8.85 -8.89 -8.91 -8.92 -8.88 -8.84 -8.80 -8.76 -8.73 -8.70 -8.68 -8.67 -8.69 -8.68 -8.67 -8.69 -8.65 -8.60 -8.56 -8.54 -8.50 -8.54 -8.50 -8.51 -8.53 -8.56 -8.58 -8.61 -8.57 -8.69 -8.74 -8.78 -8.77 -8.81 -8.82 -8.88 -8.89 -8.90 -9.02 -9.02 -9.06 -9.03 -9.01 -8.99 -8.95 -8.94 -8.88 -8.81 -8.81 -8.81 -8.77 -8.80 -8.83 -8.75 -8.74 -8.74 -8.75 -8.75 -8.75 -8.77 -8.80 -8.85 -8.86 -8.92 -8.97 -9.03 -9.07 -9.11 -9.12 -9.13 -9.19 -9.21 -9.22 -9.25 -9.25 -9.27 -9.28 -9.28 -9.28 -9.29 -9.31 -9.34 -9.36 -9.38 -9.39 -9.38 -9.38 -9.39 -9.39 -9.38 -9.38 -9.36 -9.34 -9.29 -9.26 -9.33 -9.35 -9.37 -9.36 -9.35 -9.34 -9.32 -9.32 -9.31 -9.29 -9.26 -9.25 -9.24 -9.22 -9.21 -9.23 -9.22 -9.23 -9.20 -9.19 -9.23 -9.23 -9.22 -9.23 -9.21 -9.21 -9.20 -9.19 -9.19 -9.19 -9.12 -9.15 -9.14 -9.10 -9.09 -9.10 -9.07 -9.05 -9.05 -9.03 -9.01 -8.98 -8.95 -8.90 -8.94 -8.90 -8.90 -8.91 -8.91 -8.90 -8.87 -8.87 -8.89 -8.88 -8.86 -8.84 -8.85 -8.86 -8.85 -8.83 -8.83 -8.84 -8.85 -8.85 -8.86 -8.83 -8.81 -8.80 -8.77 -8.76 -8.78 -8.76 -8.81 -8.84 -8.89 -8.91 -8.93 -8.91 -8.94 -8.96 -8.95 -8.97 -9.01 -9.03 -9.01 -9.01 -9.00 -8.98 -9.00 -8.99 -9.00 -8.98 -8.97 -8.98 -9.00 -9.01 -8.94 -9.01 -9.03 -9.01 -9.01 -8.99 -8.98 -8.99 -8.98 -8.96 -8.96 -8.97 -8.97 -8.97 -8.98 -8.99 -8.98 -8.99 -8.94 -8.95 -8.99 -8.97 -8.95 -8.99 -9.01 -9999.00 -9999.00 -9999.00 -9999.00 -9999.00 -9999.00 -9999.00
-12.58 -12.55 -12.54 -12.56 -12.61 -12.57 -12.50 -12.47 -12.41 -12.34 -12.28 -12.17 -12.10 -12.04 -12.02 -11.95 -11.94 -12.02 -11.94 -11.84 -11.81 -11.80 -11.75 -11.72 -11.71 -11.75 -11.68 -11.60 -11.52 -11.41 -11.33 -11.26 -11.20 -11.06 -10.96 -10.89 -10.78 -10.79 -10.79 -10.81 -10.78 -10.73 -10.67 -10.64 -10.64 -10.66 -10.55 -10.48 -10.48 -10.46 -10.40 -10.36 -10.30 -10.25 -10.23 -10.15 -9.92 -10.00 -10.05 -10.17 -10.13 -10.20 -10.24 -10.23 -10.22 -10.22 -10.24 -10.21 -10.15 -10.05 -9.97 -9.92 -9.87 -9.82 -9.80 -9.78 -9.75 -9.72 -9.71 -9.71 -9.70 -9.69 -9.66 -9.61 -9.55 -9.52 -9.48 -9.44 -9.45 -9.40 -9.39 -9.37 -9.32 -9.27 -9.28 -9.27 -9.26 -9.25 -9.22 -9.21 -9.18 -9.10 -9.05 -9.00 -8.97 -8.94 -8.91 -8.88 -8.86 -8.84 -8.83 -8.82 -8.81 -8.80 -8.79 -8.78 -8.75 -8.72 -8.69 -8.66 -8.62 -8.60 -8.58 -8.56 -8.52 -8.48 -8.44 -8.40 -8.35 -8.30 -8.26 -8.21 -8.18 -8.12 -8.05 -7.96 -7.86 -7.78 -7.82 -7.88 -7.95 -8.04 -8.16 -8.28 -8.36 -8.39 -8.46 -8.48 -8.50 -8.54 -8.56 -8.57 -8.65 -8.70 -8.72 -8.77 -8.81 -8.85 -8.85 -8.83 -8.82 -8.78 -8.73 -8.66 -8.64 -8.62 -8.63 -8.69 -8.72 -8.73 -8.76 -8.72 -8.64 -8.59 -8.51 -8.51 -8.44 -8.46 -8.41 -8.50 -8.50 -8.53 -8.54 -8.59 -8.61 -8.64 -8.64 -8.72 -8.77 -8.82 -8.81 -8.87 -8.92 -8.95 -8.91 -8.87 -8.90 -8.93 -8.94 -8.97 -8.91 -8.88 -8.85 -8.80 -8.78 -8.73 -8.68 -8.69 -8.67 -8.73 -8.72 -8.68 -8.71 -8.72 -8.73 -8.78 -8.81 -8.84 -8.88 -8.90 -8.96 -9.01 -9.06 -9.12 -9.13 -9.14 -9.16 -9.21 -9.20 -9.18 -9.23 -9.23 -9.26 -9.27 -9.29 -9.27 -9.29 -9.33 -9.35 -9.36 -9.36 -9.34 -9.35 -9.35 -9.35 -9.35 -9.34 -9.32 -9.31 -9.26 -9.20 -9.25 -9.29 -9.31 -9.31 -9.30 -9.31 -9.25 -9.22 -9.23 -9.22 -9.21 -9.18 -9.17 -9.16 -9.15 -9.15 -9.16 -9.17 -9.14 -9.13 -9.14 -9.13 -9.16 -9.14 -9.12 -9.13 -9.13 -9.11 -9.09 -9.11 -9.12 -9.05 -9.07 -9.06 -9.04 -9.01 -9.02 -8.98 -8.97 -8.94 -8.94 -8.92 -8.88 -8.86 -8.82 -8.86 -8.85 -8.81 -8.84 -8.84 -8.83 -8.82 -8.82 -8.84 -8.82 -8.80 -8.81 -8.78 -8.78 -8.78 -8.78 -8.78 -8.78 -8.78 -8.78 -8.79 -8.76 -8.75 -8.74 -8.69 -8.70 -8.78 -8.83 -8.86 -8.89 -8.90 -8.93 -8.91 -8.92 -8.96 -8.96 -8.96 -8.98 -9.01 -8.99 -8.98 -8.96 -8.96 -8.94 -8.97 -8.97 -8.98 -8.96 -8.95 -8.95 -8.98 -8.98 -8.90 -8.99 -8.98 -8.98 -8.97 -8.96 -8.96 -8.96 -8.95 -8.93 -8.95 -8.94 -8.95 -8.94 -8.95 -8.95 -8.96 -8.93 -8.93 -8.96 -8.95 -8.94 -8.97 -9.00 -9.01 -9999.00 -9999.00 -9999.00 -9999.00 -9999.00
-12.49 -12.44 -12.46 -12.44 -12.39 -12.38 -12.32 -12.28 -12.21 -12.12 -12.00 -11.95 -11.93 -11.87 -11.83 -11.79 -11.78 -11.74 -11.71 -11.67 -11.64 -11.60 -11.54 -11.54 -11.54 -11.57 -11.54 -11.40 -11.37 -11.29 -11.13 -11.13 -11.08 -10.94 -10.85 -10.77 -10.64 -10.68 -10.78 -10.81 -10.75 -10.63 -10.57 -10.52 -10.50 -10.49 -10.49 -10.45 -10.35 -10.38 -10.37 -10.33 -10.30 -10.21 -10.15 -10.03 -9.87 -9.83 -9.93 -10.01 -10.05 -10.11 -10.13 -10.12 -10.11 -10.12 -10.11 -10.12 -10.05 -9.99 -9.91 -9.85 -9.85 -9.80 -9.75 -9.74 -9.73 -9.71 -9.67 -9.59 -9.56 -9.55 -9.53 -9.51 -9.49 -9.45 -9.42 -9.36 -9.41 -9.36 -9.32 -9.29 -9.29 -9.29 -9.26 -9.22 -9.20 -9.14 -9.06 -8.99 -8.93 -8.87 -8.83 -8.79 -8.75 -8.71 -8.67 -8.64 -8.60 -8.57 -8.54 -8.51 -8.48 -8.46 -8.43 -8.40 -8.40 -8.39 -8.38 -8.37 -8.37 -8.36 -8.35 -8.34 -8.32 -8.30 -8.28 -8.26 -8.22 -8.19 -8.18 -8.16 -8.12 -8.06 -8.00 -7.96 -7.92 -7.89 -7.94 -8.01 -8.05 -8.08 -8.14 -8.19 -8.24 -8.26 -8.31 -8.34 -8.40 -8.43 -8.46 -8.50 -8.53 -8.57 -8.63 -8.67 -8.74 -8.79 -8.79 -8.75 -8.72 -8.70 -8.68 -8.66 -8.63 -8.64 -8.67 -8.67 -8.66 -8.69 -8.72 -8.67 -8.64 -8.58 -8.57 -8.52 -8.46 -8.36 -8.40 -8.40 -8.43 -8.43 -8.42 -8.52 -8.55 -8.60 -8.62 -8.66 -8.69 -8.72 -8.75 -8.81 -8.86 -8.87 -8.89 -8.88 -8.90 -8.95 -8.86 -8.80 -8.89 -8.82 -8.87 -8.80 -8.77 -8.74 -8.70 -8.67 -8.67 -8.63 -8.63 -8.66 -8.66 -8.66 -8.69 -8.74 -8.78 -8.81 -8.85 -8.88 -8.92 -8.97 -9.00 -9.05 -9.09 -9.12 -9.15 -9.17 -9.19 -9.19 -9.18 -9.17 -9.19 -9.24 -9.25 -9.26 -9.29 -9.27 -9.29 -9.31 -9.32 -9.33 -9.32 -9.32 -9.31 -9.31 -9.31 -9.31 -9.28 -9.24 -9.25 -9.21 -9.19 -9.22 -9.26 -9.25 -9.26 -9.22 -9.21 -9.16 -9.14 -9.15 -9.10 -9.12 -9.09 -9.09 -9.08 -9.09 -9.08 -9.09 -9.08 -9.05 -9.05 -9.08 -9.05 -9.06 -9.07 -9.01 -9.06 -9.04 -9.02 -9.01 -9.02 -9.04 -8.99 -8.98 -8.97 -8.94 -8.91 -8.91 -8.88 -8.88 -8.85 -8.84 -8.83 -8.80 -8.80 -8.76 -8.79 -8.79 -8.75 -8.77 -8.78 -8.76 -8.76 -8.76 -8.78 -8.75 -8.71 -8.73 -8.71 -8.70 -8.70 -8.71 -8.72 -8.71 -8.70 -8.72 -8.73 -8.70 -8.68 -8.71 -8.73 -8.76 -8.81 -8.88 -8.90 -8.91 -8.90 -8.90 -8.93 -8.93 -8.92 -8.97 -8.94 -8.94 -8.95 -8.95 -8.94 -8.95 -8.92 -8.93 -8.96 -8.95 -8.95 -8.93 -8.93 -8.94 -8.95 -8.96 -8.93 -8.98 -8.97 -8.96 -8.94 -8.92 -8.93 -8.93 -8.91 -8.93 -8.93 -8.91 -8.93 -8.92 -8.93 -8.92 -8.90 -8.90 -8.92 -8.95 -8.96 -8.98 -8.99 -9.00 -9999.00 -9999.00 -9999.00 -9999.00
-12.39 -12.31 -12.23 -12.22 -12.21 -12.21 -12.09 -12.02 -11.94 -11.87 -11.85 -11.82 -11.78 -11.76 -11.68 -11.65 -11.62 -11.58 -11.56 -11.55 -11.55 -11.50 -11.44 -11.46 -11.45 -11.43 -11.42 -11.37 -11.27 -11.23 -11.12 -11.04 -10.94 -10.84 -10.78 -10.72 -10.65 -10.66 -10.72 -10.72 -10.66 -10.59 -10.53 -10.47 -10.43 -10.36 -10.25 -10.32 -10.33 -10.35 -10.25 -10.30 -10.27 -10.20 -10.06 -9.93 -9.74 -9.64 -9.73 -9.84 -9.93 -9.94 -10.03 -10.06 -10.05 -10.03 -10.00 -10.00 -9.95 -9.89 -9.85 -9.85 -9.85 -9.79 -9.73 -9.71 -9.70 -9.68 -9.65 -9.62 -9.58 -9.56 -9.51 -9.46 -9.43 -9.41 -9.38 -9.33 -9.30 -9.30 -9.29 -9.31 -9.30 -9.30 -9.22 -9.14 -9.05 -8.96 -8.87 -8.78 -8.69 -8.63 -8.59 -8.55 -8.50 -8.45 -8.40 -8.35 -8.31 -8.29 -8.27 -8.26 -8.28 -8.28 -8.26 -8.24 -8.24 -8.23 -8.22 -8.21 -8.19 -8.17 -8.15 -8.14 -8.17 -8.17 -8.15 -8.13 -8.12 -8.10 -8.09 -8.07 -8.04 -8.02 -8.00 -7.97 -7.94 -7.93 -7.93 -7.95 -7.96 -7.98 -8.01 -8.05 -8.08 -8.12 -8.16 -8.18 -8.21 -8.25 -8.31 -8.37 -8.45 -8.51 -8.54 -8.59 -8.62 -8.63 -8.64 -8.64 -8.62 -8.62 -8.62 -8.59 -8.56 -8.57 -8.61 -8.64 -8.69 -8.69 -8.68 -8.67 -8.61 -8.56 -8.52 -8.50 -8.44 -8.36 -8.40 -8.39 -8.36 -8.32 -8.39 -8.44 -8.46 -8.46 -8.55 -8.58 -8.64 -8.65 -8.71 -8.74 -8.78 -8.78 -8.83 -8.83 -8.85 -8.81 -8.83 -8.84 -8.82 -8.71 -8.73 -8.80 -8.76 -8.73 -8.71 -8.70 -8.69 -8.65 -8.63 -8.59 -8.60 -8.62 -8.68 -8.72 -8.70 -8.77 -8.81 -8.83 -8.88 -8.91 -8.95 -9.01 -9.04 -9.08 -9.11 -9.13 -9.16 -9.15 -9.14 -9.14 -9.14 -9.15 -9.19 -9.24 -9.25 -9.27 -9.23 -9.23 -9.28 -9.28 -9.28 -9.29 -9.28 -9.27 -9.27 -9.28 -9.26 -9.25 -9.23 -9.21 -9.20 -9.18 -9.21 -9.19 -9.20 -9.18 -9.16 -9.13 -9.11 -9.08 -9.06 -9.06 -9.02 -9.04 -9.03 -9.01 -9.02 -9.02 -9.01 -9.00 -8.99 -8.97 -8.99 -8.97 -8.99 -8.99 -8.99 -8.96 -8.98 -8.95 -8.94 -8.93 -8.95 -8.93 -8.89 -8.89 -8.88 -8.83 -8.84 -8.81 -8.79 -8.79 -8.78 -8.76 -8.76 -8.74 -8.74 -8.69 -8.72 -8.73 -8.70 -8.71 -8.72 -8.69 -8.69 -8.69 -8.68 -8.67 -8.63 -8.65 -8.65 -8.66 -8.65 -8.65 -8.64 -8.64 -8.62 -8.64 -8.68 -8.71 -8.74 -8.78 -8.80 -8.81 -8.84 -8.87 -8.87 -8.87 -8.90 -8.91 -8.91 -8.90 -8.89 -8.92 -8.90 -8.90 -8.90 -8.91 -8.92 -8.92 -8.92 -8.92 -8.94 -8.93 -8.93 -8.92 -8.92 -8.93 -8.93 -8.93 -8.95 -8.95 -8.94 -8.94 -8.91 -8.89 -8.91 -8.91 -8.90 -8.89 -8.90 -8.89 -8.91 -8.89 -8.90 -8.90 -8.91 -8.92 -8.94 -8.98 -8.99 -8.99 -9.00 -9.01 -9999.00 -9999.00
-12.26 -12.16 -12.04 -12.02 -11.98 -11.97 -11.88 -11.81 -11.79 -11.75 -11.70 -11.66 -11.61 -11.57 -11.55 -11.56 -11.53 -11.51 -11.49 -11.50 -11.39 -11.37 -11.34 -11.33 -11.35 -11.34 -11.32 -11.32 -11.15 -11.08 -11.02 -10.88 -10.83 -10.79 -10.76 -10.69 -10.64 -10.61 -10.61 -10.60 -10.65 -10.59 -10.49 -10.42 -10.34 -10.32 -10.28 -10.25 -10.26 -10.25 -10.23 -10.18 -10.16 -10.17 -10.03 -9.84 -9.68 -9.55 -9.69 -9.81 -9.89 -9.88 -9.94 -9.97 -9.96 -9.95 -9.89 -9.95 -9.92 -9.89 -9.85 -9.81 -9.77 -9.75 -9.70 -9.65 -9.53 -9.48 -9.53 -9.52 -9.48 -9.45 -9.44 -9.40 -9.37 -9.33 -9.30 -9.26 -9.24 -9.25 -9.26 -9.27 -9.28 -9.30 -9.22 -9.12 -9.02 -8.93 -8.83 -8.72 -8.58 -8.43 -8.32 -8.28 -8.25 -8.23 -8.20 -8.18 -8.17 -8.16 -8.15 -8.15 -8.14 -8.14 -8.13 -8.13 -8.10 -8.06 -8.01 -7.97 -7.93 -7.89 -7.86 -7.86 -7.89 -7.92 -7.95 -7.98 -8.01 -8.03 -8.02 -7.98 -7.93 -7.89 -7.85 -7.84 -7.83 -7.86 -7.92 -7.95 -7.95 -7.94 -7.96 -7.99 -8.01 -8.02 -8.04 -8.04 -8.05 -8.07 -8.08 -8.15 -8.25 -8.34 -8.43 -8.50 -8.55 -8.60 -8.58 -8.55 -8.53 -8.50 -8.43 -8.46 -8.45 -8.51 -8.58 -8.61 -8.64 -8.67 -8.68 -8.59 -8.57 -8.56 -8.51 -8.49 -8.43 -8.38 -8.35 -8.35 -8.32 -8.33 -8.36 -8.36 -8.36 -8.38 -8.46 -8.48 -8.51 -8.57 -8.62 -8.68 -8.68 -8.73 -8.76 -8.78 -8.81 -8.81 -8.78 -8.75 -8.72 -8.72 -8.70 -8.67 -8.62 -8.64 -8.72 -8.69 -8.69 -8.66 -8.68 -8.66 -8.64 -8.63 -8.62 -8.66 -8.68 -8.73 -8.77 -8.75 -8.82 -8.87 -8.91 -8.95 -8.97 -9.03 -9.09 -9.11 -9.12 -9.10 -9.09 -9.11 -9.08 -9.08 -9.11 -9.13 -9.17 -9.18 -9.19 -9.22 -9.19 -9.22 -9.25 -9.23 -9.25 -9.26 -9.24 -9.23 -9.24 -9.24 -9.22 -9.19 -9.18 -9.18 -9.15 -9.13 -9.13 -9.12 -9.12 -9.10 -9.07 -9.06 -9.01 -8.99 -8.98 -8.99 -8.99 -8.95 -8.97 -8.95 -8.94 -8.93 -8.92 -8.92 -8.89 -8.89 -8.93 -8.86 -8.90 -8.92 -8.90 -8.90 -8.90 -8.87 -8.86 -8.83 -8.85 -8.83 -8.80 -8.80 -8.78 -8.74 -8.76 -8.74 -8.72 -8.69 -8.71 -8.69 -8.69 -8.67 -8.68 -8.64 -8.65 -8.67 -8.65 -8.65 -8.62 -8.59 -8.60 -8.58 -8.60 -8.57 -8.59 -8.61 -8.61 -8.61 -8.61 -8.58 -8.56 -8.58 -8.61 -8.68 -8.72 -8.77 -8.78 -8.81 -8.80 -8.81 -8.85 -8.86 -8.86 -8.88 -8.88 -8.90 -8.89 -8.87 -8.82 -8.87 -8.87 -8.88 -8.88 -8.90 -8.90 -8.89 -8.92 -8.93 -8.92 -8.90 -8.93 -8.92 -8.93 -8.93 -8.96 -8.91 -8.93 -8.93 -8.90 -8.90 -8.88 -8.88 -8.88 -8.87 -8.86 -8.86 -8.87 -8.86 -8.90 -8.89 -8.89 -8.91 -8.92 -9.00 -8.99 -9.00 -9.00 -9.01 -9.01 -9999.00
-12.11 -12.00 -11.90 -11.84 -11.81 -11.78 -11.76 -11.72 -11.65 -11.59 -11.55 -11.50 -11.54 -11.52 -11.50 -11.40 -11.33 -11.32 -11.27 -11.24 -11.16 -11.18 -11.19 -11.13 -11.11 -11.07 -11.05 -11.11 -10.95 -10.88 -10.82 -10.73 -10.67 -10.62 -10.57 -10.54 -10.51 -10.50 -10.48 -10.50 -10.51 -10.53 -10.44 -10.38 -10.34 -10.28 -10.24 -10.24 -10.21 -10.18 -10.12 -10.09 -10.08 -10.07 -10.04 -9.87 -9.70 -9.60 -9.66 -9.72 -9.82 -9.83 -9.80 -9.81 -9.90 -9.89 -9.88 -9.89 -9.84 -9.78 -9.72 -9.67 -9.64 -9.61 -9.56 -9.53 -9.52 -9.50 -9.50 -9.52 -9.49 -9.50 -9.48 -9.43 -9.32 -9.28 -9.24 -9.18 -9.13 -9.12 -9.13 -9.15 -9.14 -9.18 -9.11 -9.01 -8.88 -8.75 -8.62 -8.46 -8.29 -8.11 -8.05 -8.03 -8.01 -7.99 -7.97 -7.96 -7.94 -7.93 -7.93 -7.91 -7.90 -7.89 -7.89 -7.88 -7.86 -7.82 -7.78 -7.74 -7.70 -7.66 -7.63 -7.63 -7.68 -7.73 -7.78 -7.82 -7.85 -7.88 -7.88 -7.84 -7.78 -7.72 -7.66 -7.59 -7.52 -7.58 -7.69 -7.79 -7.88 -7.96 -8.02 -8.05 -8.04 -8.03 -8.02 -8.02 -8.03 -8.04 -8.06 -8.10 -8.14 -8.19 -8.27 -8.34 -8.41 -8.47 -8.52 -8.50 -8.46 -8.39 -8.41 -8.40 -8.41 -8.44 -8.47 -8.55 -8.57 -8.56 -8.61 -8.60 -8.56 -8.53 -8.48 -8.43 -8.38 -8.37 -8.35 -8.33 -8.27 -8.26 -8.26 -8.25 -8.28 -8.34 -8.36 -8.40 -8.41 -8.49 -8.51 -8.55 -8.57 -8.63 -8.68 -8.70 -8.73 -8.74 -8.73 -8.70 -8.67 -8.67 -8.65 -8.64 -8.62 -8.55 -8.56 -8.61 -8.68 -8.71 -8.65 -8.63 -8.69 -8.66 -8.66 -8.67 -8.68 -8.69 -8.72 -8.75 -8.77 -8.81 -8.81 -8.90 -8.93 -8.99 -8.99 -9.02 -9.07 -9.07 -9.08 -9.06 -9.04 -9.07 -9.04 -9.03 -9.08 -9.08 -9.12 -9.08 -9.15 -9.16 -9.16 -9.17 -9.18 -9.20 -9.21 -9.22 -9.20 -9.19 -9.20 -9.17 -9.17 -9.15 -9.13 -9.12 -9.10 -9.07 -9.06 -9.06 -9.03 -9.02 -8.98 -8.96 -8.92 -8.91 -8.90 -8.90 -8.90 -8.89 -8.85 -8.85 -8.85 -8.84 -8.82 -8.83 -8.82 -8.81 -8.82 -8.82 -8.84 -8.85 -8.85 -8.83 -8.81 -8.80 -8.78 -8.76 -8.76 -8.75 -8.72 -8.70 -8.69 -8.68 -8.66 -8.65 -8.67 -8.64 -8.64 -8.63 -8.60 -8.59 -8.62 -8.58 -8.59 -8.59 -8.55 -8.53 -8.48 -8.50 -8.50 -8.52 -8.54 -8.55 -8.55 -8.57 -8.57 -8.57 -8.56 -8.58 -8.61 -8.61 -8.67 -8.75 -8.75 -8.77 -8.79 -8.82 -8.81 -8.84 -8.86 -8.85 -8.84 -8.84 -8.87 -8.84 -8.86 -8.84 -8.78 -8.85 -8.84 -8.86 -8.87 -8.88 -8.90 -8.89 -8.92 -8.93 -8.92 -8.90 -8.93 -8.92 -8.93 -8.92 -8.94 -8.90 -8.88 -8.89 -8.88 -8.87 -8.85 -8.86 -8.85 -8.86 -8.83 -8.83 -8.80 -8.86 -8.89 -8.89 -8.90 -8.92 -8.92 -8.93 -8.94 -8.96 -8.97 -8.99
-12.03 -11.91 -11.79 -11.70 -11.72 -11.66 -11.65 -11.61 -11.50 -11.43 -11.37 -11.37 -11.36 -11.23 -11.16 -11.11 -11.10 -11.08 -11.04 -10.95 -10.92 -10.87 -10.84 -10.79 -10.71 -10.75 -10.79 -10.84 -10.66 -10.57 -10.52 -10.47 -10.43 -10.39 -10.35 -10.37 -10.33 -10.32 -10.34 -10.34 -10.32 -10.34 -10.29 -10.27 -10.24 -10.22 -10.20 -10.19 -10.14 -10.07 -10.00 -9.98 -9.96 -9.94 -9.98 -9.83 -9.70 -9.64 -9.64 -9.70 -9.72 -9.70 -9.71 -9.74 -9.80 -9.78 -9.76 -9.70 -9.68 -9.65 -9.62 -9.57 -9.55 -9.54 -9.55 -9.54 -9.50 -9.44 -9.42 -9.39 -9.39 -9.38 -9.32 -9.25 -9.21 -9.12 -9.03 -9.05 -9.00 -8.98 -9.00 -9.06 -9.08 -9.11 -9.04 -8.89 -8.74 -8.58 -8.45 -8.38 -8.27 -8.14 -8.03 -8.00 -7.97 -7.93 -7.90 -7.87 -7.86 -7.83 -7.79 -7.76 -7.73 -7.70 -7.67 -7.67 -7.69 -7.67 -7.63 -7.61 -7.59 -7.56 -7.54 -7.52 -7.55 -7.59 -7.64 -7.68 -7.71 -7.76 -7.75 -7.72 -7.68 -7.64 -7.59 -7.55 -7.50 -7.55 -7.62 -7.69 -7.76 -7.83 -7.93 -8.03 -8.04 -8.05 -8.05 -8.06 -8.07 -8.06 -8.07 -8.09 -8.13 -8.16 -8.19 -8.25 -8.30 -8.31 -8.39 -8.43 -8.46 -8.47 -8.42 -8.35 -8.32 -8.34 -8.46 -8.49 -8.51 -8.54 -8.56 -8.57 -8.50 -8.43 -8.44 -8.41 -8.38 -8.37 -8.33 -8.29 -8.26 -8.25 -8.25 -8.20 -8.23 -8.24 -8.25 -8.28 -8.30 -8.35 -8.41 -8.44 -8.51 -8.53 -8.57 -8.58 -8.65 -8.65 -8.63 -8.62 -8.60 -8.59 -8.54 -8.55 -8.57 -8.57 -8.55 -8.53 -8.58 -8.61 -8.64 -8.70 -8.67 -8.67 -8.67 -8.68 -8.69 -8.69 -8.71 -8.73 -8.75 -8.78 -8.81 -8.85 -8.86 -8.91 -8.95 -9.00 -8.98 -9.01 -9.04 -9.04 -9.03 -9.01 -9.02 -9.03 -9.01 -9.00 -9.03 -9.07 -9.07 -9.09 -9.12 -9.12 -9.12 -9.11 -9.13 -9.16 -9.17 -9.16 -9.16 -9.15 -9.14 -9.12 -9.10 -9.08 -9.07 -9.04 -9.03 -9.01 -8.99 -8.99 -8.93 -8.91 -8.87 -8.85 -8.83 -8.84 -8.84 -8.83 -8.80 -8.80 -8.77 -8.78 -8.76 -8.74 -8.73 -8.73 -8.75 -8.76 -8.76 -8.76 -8.77 -8.79 -8.77 -8.74 -8.72 -8.70 -8.69 -8.68 -8.66 -8.66 -8.64 -8.62 -8.62 -8.61 -8.63 -8.60 -8.58 -8.57 -8.56 -8.57 -8.50 -8.51 -8.56 -8.50 -8.48 -8.47 -8.44 -8.40 -8.40 -8.45 -8.46 -8.48 -8.50 -8.51 -8.52 -8.54 -8.55 -8.60 -8.65 -8.65 -8.68 -8.66 -8.71 -8.76 -8.78 -8.77 -8.79 -8.83 -8.81 -8.82 -8.83 -8.80 -8.81 -8.81 -8.82 -8.74 -8.83 -8.81 -8.82 -8.83 -8.82 -8.85 -8.85 -8.87 -8.87 -8.89 -8.90 -8.91 -8.93 -8.91 -8.91 -8.89 -8.90 -8.89 -8.86 -8.87 -8.88 -8.85 -8.86 -8.83 -8.82 -8.84 -8.84 -8.83 -8.82 -8.83 -8.85 -8.87 -8.90 -8.89 -8.87 -8.92 -8.92 -8.95 -8.95 -8.97
-11.86 -11.78 -11.70 -11.67 -11.63 -11.50 -11.45 -11.40 -11.28 -11.22 -11.15 -11.07 -11.00 -10.90 -10.85 -10.84 -10.77 -10.75 -10.68 -10.63 -10.59 -10.55 -10.55 -10.52 -10.44 -10.44 -10.45 -10.38 -10.31 -10.23 -10.24 -10.25 -10.23 -10.16 -10.10 -10.09 -10.11 -10.05 -10.06 -10.15 -10.15 -10.11 -10.09 -10.06 -10.09 -10.12 -10.07 -10.03 -9.98 -9.86 -9.87 -9.86 -9.84 -9.80 -9.76 -9.77 -9.68 -9.61 -9.58 -9.58 -9.52 -9.57 -9.59 -9.66 -9.72 -9.66 -9.62 -9.61 -9.57 -9.53 -9.48 -9.48 -9.42 -9.42 -9.41 -9.41 -9.35 -9.30 -9.29 -9.31 -9.28 -9.28 -9.28 -9.21 -9.16 -9.06 -8.98 -8.96 -8.86 -8.93 -8.99 -8.99 -8.92 -8.87 -8.73 -8.56 -8.50 -8.46 -8.39 -8.28 -8.16 -8.04 -8.02 -7.98 -7.97 -7.93 -7.91 -7.92 -7.92 -7.86 -7.80 -7.73 -7.66 -7.59 -7.52 -7.45 -7.45 -7.46 -7.46 -7.46 -7.47 -7.47 -7.46 -7.47 -7.48 -7.48 -7.50 -7.53 -7.56 -7.58 -7.59 -7.57 -7.55 -7.50 -7.47 -7.43 -7.39 -7.48 -7.56 -7.65 -7.72 -7.80 -7.88 -7.93 -7.97 -7.99 -8.00 -8.01 -8.04 -8.05 -8.05 -8.06 -8.09 -8.10 -8.15 -8.19 -8.23 -8.25 -8.23 -8.22 -8.28 -8.35 -8.41 -8.45 -8.44 -8.43 -8.43 -8.46 -8.52 -8.56 -8.59 -8.54 -8.54 -8.48 -8.45 -8.40 -8.32 -8.30 -8.29 -8.23 -8.23 -8.22 -8.22 -8.21 -8.20 -8.21 -8.20 -8.22 -8.22 -8.26 -8.27 -8.32 -8.38 -8.44 -8.51 -8.52 -8.53 -8.52 -8.51 -8.54 -8.55 -8.52 -8.50 -8.48 -8.43 -8.47 -8.51 -8.50 -8.50 -8.52 -8.61 -8.62 -8.61 -8.68 -8.67 -8.67 -8.68 -8.68 -8.70 -8.70 -8.73 -8.74 -8.78 -8.76 -8.86 -8.89 -8.88 -8.90 -8.92 -8.99 -8.97 -9.00 -9.00 -9.00 -8.98 -8.97 -9.00 -8.98 -8.98 -8.97 -8.97 -9.01 -9.04 -9.05 -9.04 -9.07 -9.08 -9.07 -9.10 -9.14 -9.14 -9.13 -9.11 -9.11 -9.08 -9.07 -9.03 -9.00 -9.00 -8.99 -8.98 -8.95 -8.92 -8.90 -8.86 -8.81 -8.76 -8.75 -8.76 -8.75 -8.76 -8.76 -8.72 -8.70 -8.69 -8.69 -8.67 -8.67 -8.69 -8.69 -8.71 -8.70 -8.70 -8.68 -8.68 -8.68 -8.67 -8.66 -8.63 -8.61 -8.61 -8.61 -8.60 -8.60 -8.57 -8.58 -8.58 -8.54 -8.51 -8.52 -8.49 -8.49 -8.50 -8.50 -8.39 -8.41 -8.43 -8.41 -8.39 -8.37 -8.37 -8.38 -8.38 -8.42 -8.42 -8.44 -8.47 -8.48 -8.53 -8.59 -8.62 -8.68 -8.71 -8.71 -8.71 -8.66 -8.71 -8.75 -8.77 -8.78 -8.80 -8.81 -8.79 -8.80 -8.77 -8.77 -8.76 -8.80 -8.81 -8.80 -8.81 -8.80 -8.81 -8.81 -8.82 -8.83 -8.85 -8.87 -8.87 -8.88 -8.90 -8.89 -8.90 -8.89 -8.88 -8.87 -8.86 -8.86 -8.85 -8.84 -8.83 -8.83 -8.84 -8.80 -8.81 -8.83 -8.81 -8.80 -8.79 -8.86 -8.87 -8.87 -8.87 -8.85 -8.88 -8.93 -8.92 -8.94
-11.66 -11.63 -11.52 -11.43 -11.35 -11.28 -11.18 -11.08 -11.00 -10.92 -10.86 -10.74 -10.64 -10.59 -10.48 -10.44 -10.46 -10.40 -10.36 -10.36 -10.35 -10.30 -10.25 -10.24 -10.22 -10.17 -10.06 -10.00 -10.01 -10.06 -10.06 -9.90 -9.92 -9.90 -9.91 -9.99 -10.02 -10.02 -10.01 -9.95 -9.92 -9.86 -9.91 -9.90 -9.83 -9.79 -9.76 -9.74 -9.72 -9.74 -9.73 -9.73 -9.68 -9.66 -9.72 -9.77 -9.68 -9.59 -9.52 -9.48 -9.51 -9.62 -9.64 -9.58 -9.56 -9.57 -9.51 -9.46 -9.42 -9.43 -9.42 -9.39 -9.35 -9.29 -9.28 -9.31 -9.29 -9.21 -9.21 -9.18 -9.24 -9.25 -9.21 -9.12 -9.04 -9.03 -9.01 -8.98 -8.90 -8.87 -8.81 -8.74 -8.71 -8.73 -8.73 -8.65 -8.57 -8.49 -8.40 -8.32 -8.23 -8.03 -7.99 -7.99 -8.00 -8.01 -8.02 -7.99 -7.90 -7.83 -7.78 -7.71 -7.64 -7.56 -7.48 -7.38 -7.38 -7.39 -7.39 -7.40 -7.42 -7.43 -7.44 -7.45 -7.45 -7.46 -7.46 -7.47 -7.47 -7.48 -7.48 -7.48 -7.48 -7.44 -7.42 -7.35 -7.32 -7.38 -7.45 -7.54 -7.63 -7.72 -7.81 -7.89 -7.90 -7.92 -7.95 -7.98 -8.00 -8.02 -8.02 -8.02 -8.03 -8.05 -8.07 -8.08 -8.10 -8.12 -8.11 -8.14 -8.14 -8.13 -8.10 -8.19 -8.35 -8.40 -8.42 -8.43 -8.48 -8.50 -8.50 -8.52 -8.57 -8.60 -8.57 -8.53 -8.46 -8.34 -8.30 -8.26 -8.24 -8.21 -8.14 -8.15 -8.18 -8.18 -8.17 -8.18 -8.20 -8.20 -8.20 -8.22 -8.26 -8.33 -8.40 -8.43 -8.46 -8.46 -8.45 -8.46 -8.42 -8.44 -8.44 -8.45 -8.41 -8.40 -8.41 -8.42 -8.48 -8.47 -8.46 -8.51 -8.60 -8.62 -8.62 -8.67 -8.69 -8.67 -8.70 -8.67 -8.70 -8.73 -8.72 -8.75 -8.79 -8.77 -8.86 -8.85 -8.85 -8.89 -8.90 -8.97 -8.95 -8.98 -8.96 -8.97 -8.94 -8.94 -8.97 -8.94 -8.95 -8.96 -9.00 -8.98 -9.00 -9.01 -8.97 -9.03 -9.04 -9.06 -9.09 -9.11 -9.08 -9.05 -9.04 -9.03 -9.01 -9.01 -8.97 -8.92 -8.93 -8.93 -8.91 -8.89 -8.87 -8.83 -8.77 -8.73 -8.70 -8.69 -8.68 -8.68 -8.68 -8.66 -8.64 -8.59 -8.63 -8.62 -8.63 -8.65 -8.65 -8.64 -8.64 -8.62 -8.60 -8.59 -8.59 -8.60 -8.58 -8.58 -8.53 -8.52 -8.54 -8.55 -8.55 -8.54 -8.51 -8.49 -8.45 -8.46 -8.41 -8.44 -8.40 -8.42 -8.40 -8.37 -8.31 -8.32 -8.30 -8.34 -8.35 -8.36 -8.37 -8.37 -8.37 -8.37 -8.38 -8.43 -8.52 -8.56 -8.62 -8.66 -8.68 -8.71 -8.70 -8.70 -8.70 -8.66 -8.71 -8.76 -8.77 -8.75 -8.76 -8.75 -8.74 -8.70 -8.69 -8.77 -8.79 -8.80 -8.79 -8.80 -8.80 -8.76 -8.78 -8.79 -8.82 -8.84 -8.85 -8.88 -8.87 -8.90 -8.90 -8.86 -8.85 -8.86 -8.84 -8.84 -8.83 -8.81 -8.80 -8.82 -8.79 -8.80 -8.82 -8.80 -8.81 -8.82 -8.80 -8.78 -8.82 -8.85 -8.85 -8.85 -8.85 -8.87 -8.88 -8.92
