ncols	377
nrows	32
xllcorner	296920
yllcorner	131570
cellsize	5.00
NODATA_value	-9999.00
-3.93 -3.94 -3.99 -4.16 -4.36 -4.47 -4.68 -4.60 -4.73 -4.76 -5.14 -5.18 -5.25 -5.06 -5.00 -4.91 -4.80 -4.72 -4.74 -4.72 -4.65 -4.58 -4.81 -4.82 -4.82 -4.80 -5.07 -5.04 -5.17 -5.53 -5.26 -5.19 -5.31 -5.30 -5.05 -5.08 -5.11 -5.19 -5.18 -5.11 -5.32 -5.31 -4.97 -5.07 -5.24 -5.21 -5.29 -5.52 -5.49 -5.47 -5.42 -5.44 -5.63 -5.73 -5.95 -5.86 -5.74 -5.69 -5.78 -6.05 -6.25 -6.12 -6.28 -6.39 -6.29 -6.11 -6.32 -6.36 -6.39 -6.42 -6.33 -6.28 -6.33 -6.09 -5.99 -5.92 -5.73 -5.68 -5.71 -5.69 -5.64 -5.56 -5.59 -5.68 -5.76 -5.84 -5.97 -6.08 -6.11 -6.11 -6.06 -6.02 -5.99 -5.98 -6.05 -6.13 -6.21 -6.27 -6.24 -6.19 -6.18 -6.16 -6.13 -6.10 -6.07 -6.07 -6.07 -6.07 -6.08 -6.08 -6.08 -6.01 -5.90 -5.79 -5.69 -5.59 -5.48 -5.54 -5.59 -5.65 -5.71 -5.77 -5.82 -5.85 -5.86 -5.87 -5.87 -5.88 -5.88 -5.92 -6.00 -6.08 -6.14 -6.18 -6.22 -6.24 -6.24 -6.26 -6.27 -6.18 -6.11 -6.08 -6.10 -6.12 -6.14 -6.16 -6.17 -6.19 -6.19 -6.18 -6.20 -6.17 -6.14 -6.13 -6.16 -6.14 -6.09 -6.04 -6.09 -6.14 -6.17 -6.14 -6.13 -6.13 -6.11 -6.13 -6.20 -6.24 -6.29 -6.35 -6.47 -6.44 -6.33 -6.30 -6.38 -6.39 -6.39 -6.39 -6.38 -6.38 -6.35 -6.30 -6.26 -6.25 -6.22 -6.18 -6.17 -6.22 -6.27 -6.33 -6.40 -6.46 -6.55 -6.60 -6.63 -6.65 -6.64 -6.62 -6.62 -6.60 -6.64 -6.63 -6.60 -6.63 -6.60 -6.59 -6.60 -6.59 -6.61 -6.61 -6.67 -6.71 -6.70 -6.71 -6.71 -6.72 -6.71 -6.74 -6.76 -6.79 -6.77 -6.80 -6.84 -6.84 -6.95 -6.96 -6.94 -6.97 -7.06 -7.08 -7.08 -7.06 -7.11 -7.15 -7.18 -7.16 -7.17 -7.24 -7.26 -7.28 -7.28 -7.26 -7.30 -7.28 -7.29 -7.29 -7.32 -7.34 -7.31 -7.33 -7.33 -7.38 -7.35 -7.37 -7.41 -7.41 -7.39 -7.37 -7.39 -7.39 -7.41 -7.39 -7.44 -7.41 -7.44 -7.37 -7.32 -7.26 -7.19 -7.17 -7.19 -7.18 -7.19 -7.21 -7.23 -7.21 -7.21 -7.20 -7.18 -7.17 -7.15 -7.16 -7.17 -7.14 -7.18 -7.19 -7.18 -7.20 -7.21 -7.20 -7.16 -7.20 -7.20 -7.22 -7.23 -7.23 -7.25 -7.27 -7.32 -7.35 -7.39 -7.43 -7.46 -7.49 -7.55 -7.60 -7.62 -7.64 -7.68 -7.73 -7.75 -7.77 -7.78 -7.79 -7.81 -7.84 -7.86 -7.89 -7.91 -7.95 -7.97 -7.96 -7.93 -8.00 -8.03 -8.00 -7.97 -7.94 -7.91 -7.92 -7.94 -7.99 -7.95 -7.87 -7.87 -7.88 -7.93 -7.99 -8.03 -8.11 -8.12 -8.11 -8.14 -8.19 -8.22 -8.25 -8.24 -8.24 -8.30 -8.29 -8.28 -8.26 -8.28 -8.16 -8.12 -8.14 -8.17 -8.18 -8.19 -8.22 -8.28 -8.30 -8.29 -8.28 -8.29 -8.37 -8.47 -8.48 -8.45 -8.48 -8.50 -8.48 -8.50 -8.51 -8.52 -8.53 -8.55
-3.17 -3.21 -3.33 -3.50 -3.67 -3.81 -3.89 -3.93 -4.02 -4.34 -4.20 -4.09 -4.08 -3.96 -3.86 -3.82 -3.72 -3.79 -3.83 -3.75 -3.80 -3.94 -4.11 -4.13 -4.15 -4.29 -4.41 -4.42 -4.64 -4.90 -4.65 -4.79 -4.90 -5.00 -4.95 -4.74 -4.85 -4.88 -4.81 -4.83 -4.92 -4.74 -4.59 -4.76 -4.86 -4.78 -4.95 -4.95 -4.97 -5.24 -5.47 -5.80 -5.46 -5.54 -5.38 -5.32 -5.55 -5.59 -6.28 -6.14 -6.03 -5.93 -6.16 -6.13 -5.98 -6.22 -6.25 -6.28 -6.14 -6.03 -6.08 -6.06 -5.98 -6.01 -5.98 -5.76 -5.62 -5.60 -5.59 -5.58 -5.57 -5.48 -5.60 -5.66 -5.79 -5.95 -6.04 -6.13 -6.06 -6.02 -5.98 -5.89 -5.82 -5.80 -5.87 -5.96 -6.04 -6.01 -5.98 -5.99 -6.01 -6.06 -6.09 -6.12 -6.13 -6.10 -6.07 -6.05 -6.02 -6.03 -6.03 -6.01 -5.92 -5.80 -5.72 -5.62 -5.54 -5.52 -5.49 -5.49 -5.48 -5.48 -5.48 -5.50 -5.51 -5.52 -5.54 -5.55 -5.56 -5.59 -5.64 -5.74 -5.84 -5.93 -6.01 -6.05 -6.08 -6.11 -6.17 -6.23 -6.30 -6.26 -6.25 -6.20 -6.15 -6.09 -6.02 -5.99 -5.95 -5.95 -5.96 -6.01 -6.11 -6.11 -6.06 -6.06 -6.07 -6.04 -5.99 -5.93 -5.91 -5.95 -5.96 -5.94 -5.98 -6.01 -6.06 -6.08 -6.01 -6.07 -6.17 -6.23 -6.27 -6.37 -6.37 -6.28 -6.23 -6.26 -6.29 -6.27 -6.22 -6.19 -6.18 -6.19 -6.16 -6.11 -6.04 -6.04 -6.12 -6.21 -6.28 -6.34 -6.41 -6.47 -6.54 -6.61 -6.60 -6.57 -6.57 -6.56 -6.56 -6.53 -6.54 -6.52 -6.51 -6.53 -6.53 -6.53 -6.54 -6.53 -6.55 -6.54 -6.59 -6.60 -6.59 -6.64 -6.63 -6.61 -6.63 -6.66 -6.67 -6.70 -6.68 -6.73 -6.76 -6.78 -6.83 -6.85 -6.92 -6.96 -7.01 -7.04 -7.06 -7.06 -7.08 -7.12 -7.16 -7.14 -7.10 -7.14 -7.22 -7.22 -7.24 -7.22 -7.23 -7.23 -7.23 -7.23 -7.27 -7.27 -7.25 -7.27 -7.28 -7.28 -7.27 -7.36 -7.37 -7.37 -7.36 -7.35 -7.36 -7.38 -7.37 -7.35 -7.38 -7.33 -7.28 -7.19 -7.14 -7.11 -7.08 -7.07 -7.14 -7.13 -7.12 -7.16 -7.14 -7.13 -7.12 -7.10 -7.10 -7.08 -7.07 -7.09 -7.10 -7.11 -7.14 -7.13 -7.14 -7.15 -7.13 -7.15 -7.14 -7.17 -7.17 -7.15 -7.20 -7.26 -7.29 -7.33 -7.38 -7.40 -7.43 -7.47 -7.50 -7.55 -7.61 -7.64 -7.68 -7.70 -7.72 -7.76 -7.74 -7.80 -7.81 -7.82 -7.85 -7.89 -7.91 -7.93 -7.94 -7.98 -8.00 -7.93 -7.91 -7.95 -7.93 -7.94 -7.88 -7.84 -7.83 -7.85 -7.89 -7.91 -7.90 -7.87 -7.84 -7.81 -7.93 -8.00 -8.08 -8.11 -8.13 -8.11 -8.18 -8.21 -8.24 -8.27 -8.27 -8.27 -8.28 -8.22 -8.19 -8.24 -8.19 -8.10 -8.10 -8.15 -8.17 -8.16 -8.19 -8.24 -8.31 -8.32 -8.29 -8.31 -8.38 -8.45 -8.46 -8.45 -8.44 -8.51 -8.53 -8.49 -8.52 -8.52 -8.55
-2.56 -2.49 -2.75 -2.78 -2.75 -2.89 -3.00 -3.13 -3.35 -3.29 -3.24 -3.10 -3.03 -3.05 -3.08 -3.08 -3.02 -3.05 -3.12 -3.07 -3.12 -3.29 -3.42 -3.45 -3.63 -3.76 -3.85 -3.93 -4.10 -4.27 -4.15 -4.22 -4.23 -4.41 -4.30 -4.11 -4.53 -4.60 -4.34 -4.43 -4.53 -4.33 -4.28 -4.41 -4.44 -4.50 -4.67 -4.82 -4.90 -4.99 -5.30 -5.11 -5.04 -4.91 -4.93 -5.37 -5.42 -5.60 -5.79 -5.89 -5.79 -5.80 -5.64 -5.71 -5.96 -6.11 -6.10 -6.01 -5.94 -5.88 -5.86 -5.79 -5.70 -5.61 -5.73 -5.79 -5.59 -5.63 -5.62 -5.51 -5.74 -5.54 -5.62 -5.60 -5.68 -5.73 -5.79 -5.89 -5.93 -5.98 -5.99 -5.95 -6.05 -6.00 -5.87 -5.82 -5.81 -5.82 -5.82 -5.79 -5.76 -5.73 -5.70 -5.68 -5.68 -5.74 -5.80 -5.85 -5.89 -5.92 -5.95 -5.94 -5.81 -5.67 -5.54 -5.41 -5.30 -5.32 -5.32 -5.33 -5.34 -5.33 -5.37 -5.41 -5.44 -5.48 -5.52 -5.55 -5.57 -5.60 -5.60 -5.61 -5.64 -5.66 -5.66 -5.69 -5.80 -5.87 -5.96 -5.99 -5.97 -6.00 -6.07 -6.03 -6.04 -6.03 -6.02 -5.98 -5.91 -5.86 -5.80 -5.76 -5.72 -5.75 -5.79 -5.86 -5.96 -5.99 -6.01 -6.04 -6.06 -6.07 -5.96 -5.86 -5.90 -5.94 -5.94 -5.90 -5.90 -6.04 -5.94 -6.00 -6.09 -6.21 -6.25 -6.23 -6.27 -6.23 -6.13 -6.14 -6.14 -6.14 -6.14 -6.10 -6.09 -6.06 -6.00 -6.02 -6.07 -6.05 -6.08 -6.13 -6.18 -6.26 -6.34 -6.42 -6.46 -6.52 -6.55 -6.49 -6.49 -6.51 -6.46 -6.43 -6.42 -6.40 -6.43 -6.46 -6.46 -6.46 -6.43 -6.42 -6.41 -6.46 -6.48 -6.51 -6.50 -6.52 -6.52 -6.50 -6.55 -6.59 -6.57 -6.59 -6.57 -6.66 -6.63 -6.72 -6.76 -6.76 -6.89 -6.91 -6.96 -6.97 -7.03 -7.06 -7.03 -7.06 -7.10 -7.10 -7.05 -7.10 -7.17 -7.19 -7.19 -7.18 -7.16 -7.16 -7.17 -7.18 -7.24 -7.26 -7.25 -7.22 -7.25 -7.22 -7.27 -7.33 -7.32 -7.34 -7.32 -7.30 -7.32 -7.36 -7.29 -7.23 -7.22 -7.14 -7.10 -7.04 -7.04 -7.04 -7.05 -7.04 -7.09 -7.08 -7.08 -7.08 -7.07 -7.05 -7.04 -7.03 -7.00 -7.00 -7.03 -7.07 -7.05 -7.09 -7.10 -7.08 -7.11 -7.12 -7.11 -7.13 -7.14 -7.15 -7.18 -7.20 -7.26 -7.30 -7.34 -7.39 -7.43 -7.47 -7.50 -7.52 -7.57 -7.62 -7.66 -7.71 -7.72 -7.75 -7.75 -7.77 -7.79 -7.83 -7.86 -7.83 -7.87 -7.91 -7.91 -7.95 -7.97 -7.96 -7.93 -7.87 -7.91 -7.88 -7.85 -7.90 -7.81 -7.70 -7.80 -7.81 -7.83 -7.88 -7.82 -7.85 -7.87 -7.89 -7.97 -8.06 -8.12 -8.11 -8.09 -8.11 -8.21 -8.23 -8.26 -8.26 -8.21 -8.17 -8.17 -8.17 -8.17 -8.21 -8.15 -8.11 -8.13 -8.16 -8.17 -8.15 -8.19 -8.26 -8.30 -8.35 -8.33 -8.38 -8.44 -8.41 -8.44 -8.46 -8.48 -8.54 -8.55 -8.53 -8.55
-2.31 -2.30 -2.39 -2.41 -2.42 -2.38 -2.38 -2.50 -2.58 -2.50 -2.48 -2.52 -2.56 -2.46 -2.50 -2.53 -2.58 -2.64 -2.56 -2.56 -2.55 -2.65 -2.76 -2.91 -3.05 -3.20 -3.23 -3.41 -3.57 -3.68 -3.65 -3.73 -3.75 -3.65 -3.77 -3.98 -4.10 -3.92 -3.95 -4.00 -4.17 -4.05 -4.00 -4.10 -4.24 -4.38 -4.37 -4.46 -4.54 -4.83 -4.67 -4.51 -4.57 -4.58 -4.93 -5.15 -5.10 -5.01 -5.28 -5.59 -5.42 -5.15 -5.09 -5.60 -5.79 -5.62 -5.60 -5.61 -5.65 -5.66 -5.52 -5.32 -5.46 -5.52 -5.55 -5.64 -5.74 -5.69 -5.55 -5.72 -5.61 -5.39 -5.23 -5.27 -5.33 -5.42 -5.46 -5.61 -5.57 -5.58 -5.62 -5.66 -5.68 -5.68 -5.71 -5.75 -5.77 -5.73 -5.67 -5.65 -5.66 -5.66 -5.68 -5.62 -5.61 -5.65 -5.69 -5.72 -5.75 -5.78 -5.80 -5.78 -5.63 -5.57 -5.47 -5.37 -5.26 -5.17 -5.17 -5.20 -5.22 -5.19 -5.14 -5.14 -5.17 -5.20 -5.23 -5.26 -5.30 -5.35 -5.40 -5.44 -5.48 -5.52 -5.53 -5.51 -5.51 -5.56 -5.59 -5.64 -5.73 -5.81 -5.89 -5.95 -5.92 -5.90 -5.90 -5.82 -5.77 -5.73 -5.73 -5.66 -5.67 -5.65 -5.67 -5.73 -5.76 -5.78 -5.81 -5.83 -5.91 -6.00 -6.04 -6.00 -6.01 -5.95 -5.85 -5.88 -5.93 -5.89 -5.83 -5.87 -5.92 -5.95 -6.05 -6.16 -6.18 -6.17 -6.12 -6.11 -6.06 -6.01 -6.04 -6.07 -5.95 -5.94 -5.97 -5.95 -5.98 -6.04 -6.04 -6.09 -6.12 -6.13 -6.16 -6.20 -6.25 -6.32 -6.32 -6.34 -6.40 -6.47 -6.36 -6.38 -6.37 -6.32 -6.28 -6.28 -6.33 -6.34 -6.32 -6.29 -6.27 -6.28 -6.20 -6.32 -6.36 -6.38 -6.36 -6.40 -6.40 -6.43 -6.45 -6.44 -6.42 -6.44 -6.47 -6.57 -6.52 -6.67 -6.70 -6.73 -6.83 -6.87 -6.91 -6.92 -6.93 -6.94 -6.96 -7.00 -7.03 -7.06 -7.05 -7.07 -7.12 -7.15 -7.15 -7.15 -7.11 -7.13 -7.13 -7.18 -7.24 -7.25 -7.26 -7.20 -7.23 -7.20 -7.30 -7.27 -7.27 -7.31 -7.29 -7.24 -7.23 -7.19 -7.12 -7.08 -7.04 -7.01 -7.03 -6.99 -6.96 -6.98 -6.99 -7.00 -7.03 -7.01 -7.00 -7.00 -7.00 -6.98 -6.96 -6.95 -6.95 -6.97 -7.01 -7.01 -7.02 -7.05 -7.06 -7.06 -7.09 -7.09 -7.09 -7.13 -7.17 -7.21 -7.24 -7.27 -7.32 -7.36 -7.41 -7.43 -7.49 -7.56 -7.59 -7.61 -7.64 -7.66 -7.68 -7.70 -7.72 -7.78 -7.78 -7.78 -7.83 -7.84 -7.84 -7.84 -7.89 -7.92 -7.91 -7.94 -7.94 -7.88 -7.85 -7.82 -7.91 -7.79 -7.79 -7.82 -7.79 -7.73 -7.80 -7.80 -7.77 -7.86 -7.84 -7.88 -7.90 -7.96 -8.03 -8.11 -8.12 -8.13 -8.10 -8.12 -8.22 -8.20 -8.21 -8.17 -8.12 -8.07 -8.13 -8.12 -8.19 -8.15 -8.08 -8.13 -8.14 -8.14 -8.19 -8.15 -8.24 -8.34 -8.35 -8.36 -8.39 -8.43 -8.42 -8.47 -8.47 -8.49 -8.52 -8.57 -8.55
-2.16 -2.07 -2.07 -2.14 -2.27 -2.17 -2.14 -2.15 -2.16 -2.17 -2.15 -2.10 -2.08 -2.17 -2.10 -2.18 -2.21 -2.21 -2.32 -2.32 -2.30 -2.31 -2.32 -2.38 -2.57 -2.70 -2.71 -2.88 -2.99 -3.12 -3.20 -3.23 -3.24 -3.25 -3.47 -3.48 -3.51 -3.49 -3.60 -3.63 -3.65 -3.60 -3.74 -3.85 -4.02 -4.11 -3.90 -4.10 -4.36 -4.28 -4.08 -4.17 -4.23 -4.43 -4.59 -4.77 -4.76 -4.78 -4.81 -4.92 -4.77 -4.94 -5.40 -5.36 -5.33 -5.38 -5.37 -5.36 -5.34 -5.24 -5.05 -5.50 -5.32 -5.32 -5.41 -5.50 -5.57 -5.64 -5.65 -5.48 -5.20 -5.06 -4.99 -5.07 -5.20 -5.26 -5.39 -5.39 -5.42 -5.44 -5.42 -5.40 -5.40 -5.45 -5.47 -5.58 -5.69 -5.79 -5.86 -5.78 -5.69 -5.60 -5.53 -5.46 -5.42 -5.42 -5.43 -5.44 -5.45 -5.46 -5.48 -5.49 -5.36 -5.29 -5.22 -5.16 -5.10 -5.05 -5.05 -5.02 -4.99 -4.97 -4.96 -4.99 -5.04 -5.09 -5.15 -5.20 -5.26 -5.27 -5.30 -5.34 -5.37 -5.41 -5.44 -5.43 -5.43 -5.41 -5.40 -5.40 -5.44 -5.52 -5.56 -5.65 -5.71 -5.75 -5.82 -5.80 -5.73 -5.69 -5.58 -5.49 -5.47 -5.51 -5.46 -5.44 -5.49 -5.60 -5.69 -5.74 -5.79 -5.83 -5.88 -5.92 -5.85 -5.85 -5.84 -5.87 -5.86 -5.81 -5.85 -5.86 -5.85 -5.89 -5.93 -5.97 -5.91 -5.98 -6.01 -6.02 -6.02 -5.98 -5.94 -5.90 -5.95 -5.89 -5.97 -6.01 -5.87 -5.91 -5.92 -5.94 -5.97 -6.05 -6.13 -6.17 -6.15 -6.16 -6.24 -6.29 -6.29 -6.28 -6.27 -6.38 -6.26 -6.26 -6.28 -6.25 -6.20 -6.15 -6.20 -6.13 -6.12 -6.12 -6.08 -6.01 -6.05 -6.16 -6.24 -6.25 -6.24 -6.27 -6.27 -6.24 -6.27 -6.27 -6.28 -6.32 -6.44 -6.49 -6.48 -6.63 -6.63 -6.72 -6.78 -6.80 -6.81 -6.84 -6.79 -6.82 -6.91 -6.96 -6.97 -7.01 -7.05 -7.04 -7.09 -7.11 -7.12 -7.09 -7.13 -7.15 -7.15 -7.18 -7.21 -7.24 -7.23 -7.20 -7.21 -7.24 -7.30 -7.22 -7.25 -7.21 -7.15 -7.11 -7.08 -7.00 -6.95 -6.96 -6.94 -6.95 -6.95 -6.95 -6.91 -6.95 -6.94 -6.94 -6.94 -6.92 -6.92 -6.93 -6.94 -6.92 -6.92 -6.92 -6.92 -6.94 -7.00 -6.97 -7.00 -7.02 -7.03 -7.04 -7.07 -7.10 -7.14 -7.20 -7.22 -7.27 -7.30 -7.33 -7.36 -7.42 -7.47 -7.49 -7.54 -7.60 -7.70 -7.69 -7.67 -7.69 -7.72 -7.71 -7.74 -7.82 -7.81 -7.77 -7.79 -7.82 -7.80 -7.84 -7.88 -7.87 -7.86 -7.91 -7.90 -7.81 -7.79 -7.83 -7.89 -7.77 -7.84 -7.87 -7.82 -7.76 -7.80 -7.81 -7.80 -7.89 -7.89 -7.92 -7.93 -8.00 -8.08 -8.13 -8.10 -8.10 -8.07 -8.08 -8.16 -8.12 -8.16 -8.10 -8.05 -8.10 -8.14 -8.13 -8.21 -8.09 -8.09 -8.15 -8.16 -8.20 -8.23 -8.23 -8.29 -8.37 -8.39 -8.40 -8.44 -8.42 -8.45 -8.52 -8.50 -8.52 -8.56
-2.05 -2.02 -1.95 -1.98 -1.95 -1.83 -1.93 -2.00 -1.95 -1.95 -1.89 -1.87 -1.79 -1.88 -1.85 -1.90 -1.91 -2.03 -1.97 -2.06 -2.04 -1.98 -2.11 -2.05 -2.18 -2.37 -2.28 -2.40 -2.44 -2.60 -2.73 -2.71 -2.87 -2.89 -2.94 -3.00 -3.20 -3.19 -3.24 -3.27 -3.30 -3.35 -3.38 -3.50 -3.70 -3.72 -3.65 -3.88 -3.88 -3.64 -3.76 -3.88 -3.97 -4.06 -4.20 -4.38 -4.47 -4.49 -4.48 -4.45 -4.75 -4.99 -4.97 -4.93 -4.96 -5.05 -5.04 -5.01 -5.09 -4.88 -5.38 -5.12 -5.09 -5.17 -5.11 -5.19 -5.33 -5.30 -5.21 -5.06 -5.07 -5.31 -5.06 -5.04 -5.09 -5.13 -5.18 -5.14 -5.04 -5.03 -5.05 -5.09 -5.18 -5.23 -5.30 -5.35 -5.37 -5.40 -5.44 -5.42 -5.41 -5.40 -5.40 -5.47 -5.48 -5.46 -5.45 -5.44 -5.41 -5.35 -5.28 -5.22 -5.20 -5.19 -5.17 -5.14 -5.08 -5.05 -5.06 -5.05 -4.99 -4.96 -4.93 -4.92 -4.97 -5.04 -5.11 -5.18 -5.25 -5.25 -5.22 -5.22 -5.23 -5.25 -5.29 -5.31 -5.28 -5.27 -5.25 -5.26 -5.34 -5.49 -5.60 -5.61 -5.63 -5.62 -5.61 -5.59 -5.61 -5.62 -5.59 -5.54 -5.52 -5.44 -5.41 -5.38 -5.35 -5.35 -5.42 -5.49 -5.59 -5.63 -5.66 -5.67 -5.69 -5.71 -5.74 -5.76 -5.78 -5.75 -5.75 -5.76 -5.80 -5.82 -5.87 -5.93 -5.83 -5.88 -5.86 -5.83 -5.83 -5.86 -5.84 -5.86 -5.84 -5.78 -5.84 -5.88 -5.85 -5.94 -5.95 -5.91 -5.91 -5.89 -5.90 -5.95 -6.01 -6.09 -6.16 -6.13 -6.15 -6.19 -6.19 -6.19 -6.22 -6.28 -6.20 -6.13 -6.17 -6.11 -6.04 -6.01 -6.01 -6.05 -6.00 -5.93 -5.89 -5.87 -5.90 -6.02 -6.13 -6.10 -6.09 -6.09 -6.07 -6.12 -6.08 -6.15 -6.22 -6.32 -6.46 -6.43 -6.49 -6.60 -6.57 -6.65 -6.66 -6.70 -6.71 -6.76 -6.72 -6.80 -6.82 -6.92 -6.94 -6.96 -7.02 -7.01 -7.01 -7.08 -7.05 -7.07 -7.10 -7.14 -7.14 -7.12 -7.14 -7.16 -7.22 -7.22 -7.19 -7.26 -7.20 -7.10 -7.08 -7.02 -7.00 -6.93 -6.96 -6.91 -6.89 -6.86 -6.90 -6.87 -6.87 -6.90 -6.84 -6.88 -6.86 -6.86 -6.86 -6.82 -6.87 -6.88 -6.89 -6.88 -6.90 -6.88 -6.90 -6.94 -6.93 -6.95 -6.97 -6.99 -7.03 -7.08 -7.14 -7.16 -7.19 -7.26 -7.28 -7.33 -7.33 -7.37 -7.45 -7.50 -7.51 -7.55 -7.58 -7.63 -7.68 -7.71 -7.67 -7.72 -7.68 -7.71 -7.75 -7.82 -7.80 -7.74 -7.77 -7.78 -7.78 -7.81 -7.81 -7.82 -7.83 -7.88 -7.82 -7.74 -7.77 -7.84 -7.82 -7.82 -7.84 -7.94 -7.88 -7.79 -7.84 -7.83 -7.82 -7.92 -7.94 -7.95 -7.97 -8.04 -8.13 -8.11 -8.08 -8.02 -8.02 -8.02 -8.05 -8.06 -8.11 -8.08 -8.07 -8.13 -8.11 -8.17 -8.14 -8.07 -8.14 -8.19 -8.23 -8.25 -8.27 -8.31 -8.35 -8.42 -8.41 -8.46 -8.44 -8.50 -8.50 -8.59 -8.55
-1.66 -1.73 -1.72 -1.77 -1.80 -1.77 -1.79 -1.71 -1.69 -1.66 -1.74 -1.65 -1.62 -1.65 -1.61 -1.63 -1.65 -1.60 -1.72 -1.79 -1.74 -1.77 -1.81 -1.83 -1.94 -1.92 -1.98 -2.10 -2.12 -2.28 -2.26 -2.41 -2.39 -2.48 -2.49 -2.60 -2.61 -2.85 -2.88 -2.91 -2.95 -2.99 -3.01 -3.19 -3.36 -3.29 -3.34 -3.55 -3.42 -3.43 -3.39 -3.60 -3.69 -3.79 -3.68 -3.95 -4.18 -4.07 -4.10 -4.51 -4.58 -4.61 -4.60 -4.65 -4.70 -4.74 -4.74 -5.00 -4.73 -4.78 -4.82 -4.64 -4.60 -4.65 -4.71 -4.82 -5.00 -5.12 -4.95 -4.99 -5.09 -5.02 -4.91 -5.05 -4.93 -4.89 -4.92 -4.84 -4.67 -4.70 -4.78 -4.90 -4.97 -4.95 -4.94 -4.94 -5.01 -5.14 -5.26 -5.33 -5.38 -5.40 -5.41 -5.44 -5.43 -5.36 -5.28 -5.20 -5.11 -5.03 -4.96 -4.91 -4.89 -4.88 -4.87 -4.86 -4.85 -4.86 -4.90 -4.95 -4.97 -4.98 -4.97 -4.99 -5.01 -5.02 -5.03 -5.03 -5.05 -5.10 -5.11 -5.13 -5.15 -5.20 -5.19 -5.23 -5.24 -5.22 -5.18 -5.17 -5.25 -5.37 -5.48 -5.62 -5.78 -5.88 -5.87 -5.71 -5.58 -5.54 -5.51 -5.48 -5.46 -5.43 -5.40 -5.39 -5.37 -5.38 -5.40 -5.43 -5.48 -5.54 -5.59 -5.57 -5.56 -5.59 -5.63 -5.66 -5.70 -5.65 -5.70 -5.69 -5.65 -5.71 -5.76 -5.76 -5.81 -5.78 -5.75 -5.72 -5.73 -5.74 -5.72 -5.71 -5.68 -5.68 -5.65 -5.74 -5.81 -5.82 -5.82 -5.84 -5.86 -5.89 -5.90 -5.86 -5.85 -5.91 -5.97 -6.05 -6.02 -6.06 -6.03 -6.04 -6.09 -6.10 -6.17 -6.19 -6.04 -6.03 -5.99 -5.94 -5.87 -5.84 -5.81 -5.84 -5.82 -5.73 -5.71 -5.74 -5.76 -5.93 -6.00 -5.96 -5.92 -5.88 -5.94 -6.07 -6.08 -6.17 -6.24 -6.30 -6.43 -6.39 -6.43 -6.53 -6.57 -6.61 -6.54 -6.60 -6.62 -6.68 -6.68 -6.79 -6.78 -6.84 -6.91 -6.92 -6.91 -6.88 -6.90 -7.02 -6.97 -7.01 -7.00 -7.07 -7.08 -7.05 -7.08 -7.13 -7.22 -7.18 -7.07 -7.09 -7.02 -6.99 -6.93 -6.90 -6.86 -6.87 -6.84 -6.84 -6.81 -6.80 -6.81 -6.84 -6.79 -6.80 -6.77 -6.79 -6.78 -6.77 -6.77 -6.80 -6.82 -6.83 -6.84 -6.83 -6.87 -6.88 -6.88 -6.91 -6.92 -6.90 -6.97 -7.03 -7.09 -7.15 -7.20 -7.22 -7.26 -7.31 -7.35 -7.34 -7.36 -7.49 -7.54 -7.58 -7.56 -7.56 -7.61 -7.66 -7.66 -7.73 -7.68 -7.73 -7.69 -7.70 -7.73 -7.82 -7.75 -7.73 -7.76 -7.77 -7.74 -7.78 -7.72 -7.78 -7.79 -7.83 -7.81 -7.79 -7.77 -7.80 -7.80 -7.89 -7.86 -7.87 -7.80 -7.84 -7.87 -7.87 -7.85 -7.94 -7.99 -8.00 -8.03 -8.03 -8.04 -8.02 -8.05 -7.96 -7.97 -7.98 -8.02 -8.04 -8.07 -8.06 -8.06 -8.16 -8.10 -8.19 -8.08 -8.12 -8.22 -8.25 -8.30 -8.31 -8.32 -8.36 -8.43 -8.43 -8.45 -8.47 -8.52 -8.54 -8.55
-1.51 -1.54 -1.47 -1.52 -1.53 -1.57 -1.52 -1.51 -1.49 -1.47 -1.44 -1.43 -1.40 -1.45 -1.47 -1.50 -1.52 -1.51 -1.50 -1.48 -1.51 -1.56 -1.62 -1.59 -1.70 -1.71 -1.75 -1.86 -1.92 -2.05 -2.12 -2.09 -1.92 -2.06 -2.24 -2.22 -2.28 -2.35 -2.41 -2.57 -2.55 -2.57 -2.61 -2.82 -2.96 -2.83 -3.06 -3.20 -3.03 -3.20 -3.21 -3.37 -3.36 -3.37 -3.55 -3.70 -3.67 -3.72 -4.03 -4.16 -4.25 -4.28 -4.33 -4.41 -4.36 -4.32 -4.68 -4.45 -4.26 -4.33 -4.52 -4.10 -4.27 -4.58 -4.66 -4.74 -4.79 -4.90 -4.72 -4.94 -4.88 -4.89 -4.90 -4.87 -4.69 -4.84 -4.67 -4.53 -4.56 -4.68 -4.71 -4.65 -4.69 -4.78 -5.08 -5.10 -5.15 -5.17 -5.21 -5.23 -5.20 -5.18 -5.15 -5.15 -5.13 -5.04 -4.98 -4.90 -4.81 -4.71 -4.64 -4.62 -4.63 -4.63 -4.64 -4.64 -4.65 -4.67 -4.71 -4.73 -4.76 -4.78 -4.80 -4.80 -4.82 -4.85 -4.87 -4.88 -4.88 -4.89 -4.89 -4.91 -4.92 -4.94 -4.99 -5.05 -5.13 -5.22 -5.25 -5.25 -5.29 -5.34 -5.38 -5.43 -5.48 -5.55 -5.61 -5.67 -5.71 -5.59 -5.57 -5.44 -5.40 -5.36 -5.33 -5.29 -5.26 -5.31 -5.33 -5.36 -5.38 -5.38 -5.37 -5.38 -5.39 -5.43 -5.46 -5.46 -5.46 -5.46 -5.49 -5.42 -5.49 -5.61 -5.58 -5.56 -5.65 -5.65 -5.66 -5.61 -5.57 -5.61 -5.68 -5.64 -5.72 -5.71 -5.60 -5.59 -5.64 -5.68 -5.63 -5.67 -5.72 -5.77 -5.75 -5.73 -5.73 -5.78 -5.75 -5.83 -5.92 -5.96 -5.95 -5.94 -5.94 -5.93 -5.94 -5.99 -6.02 -5.94 -5.87 -5.86 -5.69 -5.73 -5.77 -5.72 -5.63 -5.63 -5.63 -5.53 -5.59 -5.67 -5.80 -5.87 -5.85 -5.76 -5.79 -5.87 -5.97 -6.05 -6.11 -6.16 -6.26 -6.28 -6.39 -6.39 -6.32 -6.46 -6.55 -6.50 -6.46 -6.54 -6.53 -6.60 -6.66 -6.77 -6.78 -6.78 -6.85 -6.85 -6.90 -6.76 -6.80 -6.96 -6.94 -6.94 -6.91 -6.93 -7.01 -7.00 -6.99 -7.04 -7.03 -6.99 -6.87 -6.89 -6.85 -6.82 -6.81 -6.81 -6.76 -6.78 -6.76 -6.76 -6.74 -6.72 -6.74 -6.76 -6.74 -6.74 -6.72 -6.74 -6.74 -6.74 -6.74 -6.77 -6.78 -6.78 -6.82 -6.83 -6.86 -6.87 -6.88 -6.89 -6.94 -6.97 -7.05 -7.10 -7.13 -7.22 -7.27 -7.30 -7.33 -7.36 -7.37 -7.34 -7.46 -7.54 -7.58 -7.57 -7.57 -7.58 -7.62 -7.65 -7.66 -7.70 -7.71 -7.73 -7.68 -7.69 -7.71 -7.79 -7.72 -7.73 -7.74 -7.75 -7.69 -7.71 -7.69 -7.78 -7.83 -7.82 -7.85 -7.84 -7.71 -7.76 -7.79 -7.81 -7.86 -7.85 -7.81 -7.86 -7.91 -7.88 -7.90 -7.97 -8.00 -7.98 -7.99 -7.93 -7.97 -7.96 -8.01 -7.95 -7.94 -7.97 -7.99 -8.02 -8.04 -8.08 -8.08 -8.12 -8.14 -8.12 -8.13 -8.20 -8.29 -8.30 -8.35 -8.36 -8.40 -8.44 -8.45 -8.44 -8.47 -8.52 -8.58
-1.30 -1.31 -1.36 -1.27 -1.27 -1.29 -1.29 -1.29 -1.29 -1.25 -1.24 -1.25 -1.25 -1.28 -1.29 -1.35 -1.36 -1.33 -1.28 -1.37 -1.35 -1.40 -1.41 -1.43 -1.49 -1.53 -1.48 -1.69 -1.67 -1.71 -1.72 -1.76 -1.75 -1.86 -2.08 -2.01 -1.89 -2.02 -2.12 -2.23 -2.28 -2.26 -2.28 -2.42 -2.52 -2.54 -2.62 -2.77 -2.66 -2.78 -2.95 -3.03 -3.06 -3.11 -3.28 -3.36 -3.38 -3.51 -3.59 -3.77 -3.97 -4.08 -4.13 -4.06 -3.99 -4.14 -4.08 -4.09 -4.30 -4.37 -4.23 -4.24 -4.27 -4.38 -4.58 -4.59 -4.41 -4.44 -4.76 -4.75 -4.76 -4.72 -4.71 -4.63 -4.64 -4.43 -4.38 -4.45 -4.65 -4.75 -4.70 -4.77 -4.84 -4.91 -4.98 -4.94 -4.92 -4.86 -4.79 -4.75 -4.73 -4.74 -4.74 -4.74 -4.72 -4.65 -4.60 -4.62 -4.65 -4.67 -4.70 -4.71 -4.69 -4.66 -4.65 -4.63 -4.61 -4.58 -4.60 -4.63 -4.66 -4.69 -4.70 -4.71 -4.74 -4.79 -4.83 -4.80 -4.81 -4.85 -4.89 -4.91 -4.92 -4.94 -4.96 -4.99 -5.02 -5.05 -5.08 -5.11 -5.13 -5.13 -5.15 -5.19 -5.22 -5.26 -5.30 -5.34 -5.38 -5.43 -5.49 -5.55 -5.37 -5.32 -5.23 -5.24 -5.23 -5.23 -5.24 -5.24 -5.28 -5.37 -5.31 -5.33 -5.35 -5.35 -5.29 -5.20 -5.18 -5.18 -5.15 -5.18 -5.28 -5.33 -5.35 -5.42 -5.55 -5.53 -5.53 -5.56 -5.54 -5.50 -5.52 -5.55 -5.58 -5.68 -5.57 -5.55 -5.62 -5.56 -5.57 -5.62 -5.69 -5.68 -5.61 -5.59 -5.62 -5.67 -5.64 -5.66 -5.75 -5.83 -5.87 -5.91 -5.89 -5.86 -5.83 -5.80 -5.78 -5.88 -5.90 -5.77 -5.56 -5.65 -5.65 -5.58 -5.59 -5.58 -5.49 -5.47 -5.55 -5.54 -5.61 -5.69 -5.79 -5.81 -5.75 -5.79 -5.85 -5.91 -6.00 -6.05 -6.11 -6.12 -6.18 -6.25 -6.37 -6.43 -6.26 -6.36 -6.42 -6.36 -6.43 -6.50 -6.45 -6.52 -6.59 -6.67 -6.64 -6.72 -6.79 -6.73 -6.88 -6.82 -6.82 -6.90 -6.90 -6.86 -6.84 -6.84 -6.95 -6.91 -6.85 -6.85 -6.82 -6.80 -6.73 -6.77 -6.75 -6.74 -6.72 -6.68 -6.70 -6.69 -6.66 -6.68 -6.67 -6.67 -6.69 -6.69 -6.69 -6.68 -6.69 -6.70 -6.71 -6.72 -6.71 -6.73 -6.77 -6.78 -6.82 -6.83 -6.86 -6.88 -6.91 -6.93 -7.00 -7.03 -7.14 -7.17 -7.19 -7.28 -7.31 -7.35 -7.34 -7.45 -7.37 -7.40 -7.53 -7.57 -7.55 -7.60 -7.60 -7.60 -7.62 -7.62 -7.67 -7.66 -7.72 -7.74 -7.66 -7.71 -7.66 -7.73 -7.70 -7.73 -7.72 -7.72 -7.70 -7.64 -7.73 -7.78 -7.81 -7.84 -7.88 -7.85 -7.76 -7.79 -7.80 -7.81 -7.83 -7.79 -7.83 -7.89 -7.95 -7.84 -7.94 -7.96 -7.93 -7.93 -7.95 -7.87 -7.94 -7.95 -8.00 -7.94 -7.92 -7.94 -7.96 -8.00 -8.03 -8.04 -8.11 -8.11 -8.16 -8.14 -8.20 -8.34 -8.32 -8.36 -8.39 -8.43 -8.45 -8.48 -8.45 -8.47 -8.50
-1.06 -1.08 -1.18 -1.09 -1.04 -1.07 -1.11 -1.15 -1.10 -1.11 -1.09 -1.08 -1.08 -1.05 -1.09 -1.11 -1.13 -1.16 -1.16 -1.17 -1.21 -1.25 -1.27 -1.25 -1.29 -1.31 -1.39 -1.42 -1.51 -1.48 -1.53 -1.53 -1.54 -1.61 -1.61 -1.82 -1.76 -1.75 -1.76 -1.92 -2.02 -1.98 -2.15 -2.13 -2.18 -2.23 -2.35 -2.42 -2.54 -2.47 -2.69 -2.77 -2.74 -2.81 -3.08 -3.00 -3.13 -3.24 -3.40 -3.39 -3.64 -3.84 -3.74 -3.75 -3.85 -3.75 -3.99 -4.06 -3.97 -3.91 -3.95 -4.48 -4.33 -4.13 -4.10 -4.19 -4.17 -4.43 -4.41 -4.38 -4.34 -4.36 -4.35 -4.38 -4.17 -4.29 -4.30 -4.53 -4.58 -4.42 -4.49 -4.56 -4.59 -4.65 -4.60 -4.54 -4.48 -4.41 -4.33 -4.30 -4.31 -4.36 -4.42 -4.49 -4.65 -4.78 -4.81 -4.84 -4.86 -4.89 -4.86 -4.81 -4.77 -4.79 -4.79 -4.79 -4.74 -4.76 -4.74 -4.73 -4.71 -4.68 -4.65 -4.70 -4.72 -4.74 -4.76 -4.79 -4.79 -4.78 -4.76 -4.74 -4.72 -4.70 -4.73 -4.77 -4.80 -4.85 -4.90 -4.94 -4.97 -4.99 -5.01 -5.04 -5.06 -5.09 -5.13 -5.18 -5.23 -5.30 -5.32 -5.31 -5.29 -5.27 -5.25 -5.13 -5.06 -5.07 -5.11 -5.14 -5.20 -5.24 -5.24 -5.26 -5.28 -5.30 -5.29 -5.27 -5.18 -4.98 -4.95 -4.91 -4.85 -4.86 -5.05 -5.23 -5.32 -5.33 -5.41 -5.49 -5.45 -5.46 -5.41 -5.42 -5.42 -5.51 -5.54 -5.50 -5.55 -5.49 -5.46 -5.48 -5.51 -5.49 -5.52 -5.55 -5.58 -5.59 -5.54 -5.57 -5.64 -5.70 -5.76 -5.84 -5.92 -5.94 -5.84 -5.76 -5.73 -5.68 -5.59 -5.66 -5.59 -5.58 -5.42 -5.45 -5.53 -5.50 -5.46 -5.48 -5.48 -5.52 -5.59 -5.56 -5.61 -5.74 -5.79 -5.75 -5.82 -5.84 -5.96 -5.96 -6.02 -6.05 -6.09 -6.04 -6.05 -6.21 -6.33 -6.35 -6.22 -6.25 -6.29 -6.30 -6.39 -6.42 -6.36 -6.42 -6.49 -6.50 -6.54 -6.73 -6.72 -6.68 -6.75 -6.80 -6.82 -6.84 -6.85 -6.79 -6.75 -6.74 -6.76 -6.70 -6.75 -6.71 -6.66 -6.67 -6.63 -6.67 -6.64 -6.64 -6.62 -6.60 -6.62 -6.62 -6.60 -6.61 -6.57 -6.62 -6.62 -6.65 -6.67 -6.66 -6.66 -6.68 -6.68 -6.70 -6.72 -6.75 -6.76 -6.78 -6.85 -6.87 -6.90 -6.95 -6.94 -6.99 -7.03 -7.10 -7.20 -7.21 -7.25 -7.33 -7.39 -7.35 -7.39 -7.41 -7.39 -7.48 -7.56 -7.56 -7.64 -7.56 -7.56 -7.59 -7.61 -7.66 -7.65 -7.62 -7.68 -7.69 -7.68 -7.69 -7.65 -7.67 -7.69 -7.72 -7.73 -7.70 -7.72 -7.65 -7.67 -7.80 -7.74 -7.85 -7.83 -7.70 -7.77 -7.75 -7.77 -7.80 -7.81 -7.82 -7.84 -7.87 -7.89 -7.87 -7.91 -7.90 -7.90 -7.89 -7.91 -7.92 -7.94 -7.95 -7.99 -7.95 -7.91 -7.91 -7.95 -8.00 -8.06 -7.96 -8.09 -8.11 -8.12 -8.22 -8.28 -8.37 -8.36 -8.42 -8.45 -8.49 -8.50 -8.47 -8.48
-0.83 -0.87 -0.96 -0.91 -0.88 -0.89 -0.93 -0.92 -0.94 -0.89 -0.94 -0.90 -0.89 -0.89 -0.91 -0.93 -0.95 -0.95 -0.97 -1.00 -1.03 -1.10 -1.09 -1.09 -1.09 -1.14 -1.17 -1.21 -1.25 -1.28 -1.31 -1.33 -1.38 -1.42 -1.47 -1.62 -1.61 -1.58 -1.54 -1.56 -1.79 -1.87 -1.84 -1.82 -1.94 -1.90 -2.05 -2.14 -2.18 -2.31 -2.47 -2.37 -2.48 -2.60 -2.62 -2.75 -2.84 -2.97 -3.05 -3.14 -3.24 -3.28 -3.43 -3.57 -3.40 -3.49 -3.64 -3.62 -3.65 -3.70 -3.93 -3.93 -3.85 -3.89 -3.97 -3.91 -3.94 -4.09 -3.89 -3.94 -4.02 -4.06 -3.99 -3.93 -4.19 -4.17 -4.23 -4.27 -4.29 -3.96 -4.28 -4.17 -4.23 -4.27 -4.39 -4.31 -4.23 -4.15 -4.07 -4.11 -4.24 -4.36 -4.49 -4.59 -4.70 -4.75 -4.76 -4.77 -4.77 -4.69 -4.64 -4.62 -4.60 -4.57 -4.54 -4.51 -4.48 -4.44 -4.47 -4.50 -4.53 -4.55 -4.57 -4.58 -4.59 -4.59 -4.61 -4.63 -4.63 -4.62 -4.62 -4.61 -4.60 -4.59 -4.60 -4.60 -4.60 -4.61 -4.65 -4.72 -4.80 -4.80 -4.82 -4.83 -4.84 -4.88 -4.96 -5.03 -5.08 -5.12 -5.15 -5.17 -5.17 -5.16 -5.16 -5.13 -5.04 -4.93 -4.89 -4.88 -4.93 -4.99 -5.13 -5.18 -5.28 -5.27 -5.33 -5.27 -5.12 -4.96 -4.87 -4.72 -4.70 -4.73 -4.77 -4.83 -4.90 -5.10 -5.24 -5.33 -5.32 -5.35 -5.36 -5.36 -5.39 -5.30 -5.31 -5.42 -5.43 -5.42 -5.40 -5.40 -5.37 -5.36 -5.39 -5.41 -5.41 -5.38 -5.40 -5.49 -5.55 -5.56 -5.58 -5.66 -5.73 -5.80 -5.84 -5.81 -5.71 -5.65 -5.62 -5.55 -5.46 -5.42 -5.42 -5.39 -5.29 -5.28 -5.36 -5.46 -5.40 -5.51 -5.50 -5.59 -5.65 -5.58 -5.65 -5.74 -5.84 -5.74 -5.82 -5.90 -5.98 -5.95 -5.98 -6.00 -6.03 -6.05 -6.04 -6.16 -6.30 -6.27 -6.19 -6.15 -6.16 -6.27 -6.36 -6.34 -6.25 -6.33 -6.40 -6.39 -6.50 -6.67 -6.66 -6.64 -6.64 -6.74 -6.82 -6.80 -6.75 -6.61 -6.64 -6.62 -6.62 -6.55 -6.60 -6.61 -6.54 -6.52 -6.53 -6.57 -6.57 -6.55 -6.54 -6.56 -6.53 -6.52 -6.53 -6.53 -6.51 -6.56 -6.59 -6.63 -6.63 -6.61 -6.63 -6.66 -6.66 -6.68 -6.74 -6.78 -6.81 -6.84 -6.93 -6.93 -6.95 -6.95 -6.96 -7.06 -7.11 -7.19 -7.21 -7.27 -7.30 -7.37 -7.36 -7.39 -7.40 -7.37 -7.43 -7.52 -7.56 -7.56 -7.60 -7.53 -7.57 -7.57 -7.57 -7.63 -7.59 -7.60 -7.63 -7.64 -7.69 -7.66 -7.65 -7.69 -7.69 -7.71 -7.72 -7.71 -7.67 -7.66 -7.71 -7.79 -7.78 -7.83 -7.81 -7.72 -7.80 -7.70 -7.75 -7.78 -7.78 -7.80 -7.83 -7.83 -7.77 -7.85 -7.88 -7.89 -7.90 -7.89 -7.87 -7.93 -7.94 -7.96 -7.97 -7.96 -7.89 -7.88 -7.94 -8.02 -7.95 -8.06 -8.15 -8.16 -8.20 -8.32 -8.36 -8.37 -8.41 -8.49 -8.52 -8.50 -8.49
-0.64 -0.67 -0.69 -0.73 -0.70 -0.70 -0.70 -0.69 -0.69 -0.72 -0.74 -0.71 -0.73 -0.73 -0.75 -0.76 -0.78 -0.77 -0.74 -0.83 -0.85 -0.91 -0.93 -0.91 -0.89 -0.94 -0.98 -1.01 -1.05 -1.10 -1.12 -1.16 -1.19 -1.23 -1.30 -1.38 -1.40 -1.38 -1.36 -1.40 -1.55 -1.55 -1.56 -1.66 -1.63 -1.59 -1.77 -1.88 -1.95 -2.07 -2.13 -2.09 -2.27 -2.21 -2.51 -2.46 -2.55 -2.73 -2.78 -2.89 -2.90 -2.96 -3.10 -3.03 -3.15 -3.35 -3.29 -3.32 -3.34 -3.36 -3.55 -3.50 -3.48 -3.58 -3.64 -3.46 -3.81 -3.57 -3.80 -3.85 -3.81 -3.74 -3.70 -3.87 -3.95 -3.93 -3.96 -3.98 -4.01 -4.07 -3.98 -3.97 -3.94 -4.03 -3.87 -3.92 -3.97 -4.08 -4.19 -4.25 -4.30 -4.34 -4.38 -4.41 -4.47 -4.50 -4.47 -4.45 -4.45 -4.44 -4.44 -4.44 -4.41 -4.39 -4.37 -4.34 -4.32 -4.29 -4.29 -4.30 -4.31 -4.34 -4.35 -4.36 -4.37 -4.38 -4.39 -4.40 -4.41 -4.43 -4.46 -4.48 -4.51 -4.54 -4.51 -4.48 -4.47 -4.46 -4.47 -4.49 -4.48 -4.52 -4.58 -4.62 -4.68 -4.76 -4.82 -4.88 -4.96 -5.03 -5.07 -5.08 -5.08 -5.08 -5.09 -5.05 -4.94 -4.84 -4.73 -4.67 -4.66 -4.71 -4.82 -4.91 -5.06 -5.19 -5.29 -5.24 -5.17 -5.09 -4.97 -4.76 -4.56 -4.55 -4.61 -4.66 -4.77 -4.78 -4.83 -4.96 -5.10 -5.21 -5.23 -5.17 -5.19 -5.25 -5.30 -5.31 -5.22 -5.31 -5.34 -5.35 -5.29 -5.28 -5.29 -5.29 -5.31 -5.33 -5.36 -5.38 -5.40 -5.43 -5.46 -5.51 -5.52 -5.56 -5.63 -5.67 -5.68 -5.65 -5.54 -5.45 -5.34 -5.30 -5.22 -5.21 -5.24 -5.20 -5.17 -5.17 -5.26 -5.45 -5.33 -5.47 -5.53 -5.58 -5.58 -5.59 -5.68 -5.74 -5.76 -5.88 -5.84 -5.89 -5.92 -5.95 -5.92 -5.97 -5.97 -6.04 -6.10 -6.12 -6.26 -6.19 -6.16 -6.07 -6.15 -6.30 -6.30 -6.22 -6.16 -6.28 -6.37 -6.38 -6.45 -6.59 -6.64 -6.59 -6.54 -6.62 -6.67 -6.65 -6.56 -6.46 -6.54 -6.51 -6.48 -6.47 -6.48 -6.51 -6.44 -6.38 -6.43 -6.45 -6.48 -6.47 -6.47 -6.49 -6.45 -6.43 -6.47 -6.52 -6.47 -6.51 -6.55 -6.58 -6.60 -6.60 -6.62 -6.65 -6.66 -6.73 -6.78 -6.86 -6.91 -6.92 -7.01 -6.99 -7.02 -7.01 -7.07 -7.17 -7.22 -7.27 -7.24 -7.27 -7.33 -7.40 -7.34 -7.38 -7.41 -7.43 -7.46 -7.52 -7.47 -7.54 -7.57 -7.47 -7.52 -7.59 -7.60 -7.54 -7.60 -7.59 -7.60 -7.60 -7.68 -7.59 -7.63 -7.68 -7.71 -7.74 -7.72 -7.74 -7.64 -7.69 -7.76 -7.72 -7.77 -7.80 -7.69 -7.78 -7.74 -7.70 -7.75 -7.77 -7.77 -7.75 -7.76 -7.77 -7.83 -7.85 -7.93 -7.87 -7.90 -7.90 -7.91 -7.93 -7.92 -7.94 -7.94 -7.91 -7.87 -7.85 -7.95 -7.99 -7.98 -8.18 -8.18 -8.17 -8.31 -8.38 -8.43 -8.42 -8.46 -8.51 -8.52
-0.39 -0.47 -0.43 -0.50 -0.55 -0.60 -0.53 -0.53 -0.53 -0.55 -0.56 -0.54 -0.58 -0.56 -0.58 -0.61 -0.65 -0.58 -0.58 -0.61 -0.62 -0.69 -0.76 -0.73 -0.75 -0.73 -0.75 -0.81 -0.88 -0.90 -0.94 -0.97 -1.00 -1.05 -1.13 -1.19 -1.22 -1.19 -1.18 -1.25 -1.32 -1.32 -1.33 -1.38 -1.39 -1.44 -1.53 -1.60 -1.68 -1.72 -1.82 -1.87 -1.98 -2.03 -2.16 -2.27 -2.28 -2.43 -2.54 -2.63 -2.63 -2.60 -2.67 -2.81 -2.94 -2.94 -2.85 -2.95 -3.01 -3.14 -3.15 -3.13 -3.23 -3.33 -3.22 -3.44 -3.27 -3.44 -3.63 -3.57 -3.51 -3.50 -3.54 -3.66 -3.64 -3.87 -4.01 -3.92 -3.94 -3.97 -3.83 -3.74 -3.90 -4.10 -3.84 -3.83 -3.90 -3.97 -4.01 -4.04 -4.08 -4.13 -4.17 -4.22 -4.26 -4.29 -4.29 -4.28 -4.26 -4.25 -4.23 -4.22 -4.23 -4.24 -4.24 -4.25 -4.26 -4.28 -4.27 -4.26 -4.25 -4.24 -4.23 -4.24 -4.24 -4.25 -4.26 -4.27 -4.28 -4.30 -4.32 -4.34 -4.36 -4.39 -4.38 -4.36 -4.34 -4.32 -4.30 -4.34 -4.35 -4.37 -4.39 -4.43 -4.44 -4.54 -4.63 -4.72 -4.81 -4.91 -4.94 -4.91 -4.89 -4.88 -4.87 -4.86 -4.87 -4.79 -4.62 -4.52 -4.42 -4.44 -4.55 -4.65 -4.72 -4.84 -4.96 -5.02 -4.98 -4.97 -4.92 -4.87 -4.76 -4.66 -4.49 -4.49 -4.55 -4.61 -4.73 -4.80 -4.82 -4.87 -5.02 -5.02 -5.11 -5.11 -5.08 -5.10 -5.10 -5.12 -5.18 -5.20 -5.24 -5.21 -5.15 -5.19 -5.22 -5.18 -5.28 -5.29 -5.30 -5.33 -5.35 -5.40 -5.44 -5.43 -5.40 -5.44 -5.48 -5.57 -5.44 -5.36 -5.33 -5.21 -5.11 -5.09 -4.98 -5.03 -5.09 -5.10 -5.13 -5.21 -5.17 -5.34 -5.32 -5.45 -5.49 -5.54 -5.54 -5.60 -5.68 -5.74 -5.71 -5.92 -5.81 -5.89 -5.89 -5.98 -5.86 -5.94 -5.91 -5.94 -6.08 -6.18 -6.17 -6.13 -6.08 -6.03 -6.16 -6.23 -6.25 -6.22 -6.19 -6.27 -6.35 -6.38 -6.40 -6.55 -6.58 -6.51 -6.42 -6.44 -6.53 -6.49 -6.37 -6.36 -6.42 -6.43 -6.36 -6.32 -6.38 -6.40 -6.38 -6.32 -6.35 -6.41 -6.41 -6.38 -6.41 -6.43 -6.38 -6.40 -6.44 -6.51 -6.43 -6.52 -6.52 -6.58 -6.60 -6.59 -6.63 -6.68 -6.75 -6.84 -6.85 -6.91 -7.03 -6.99 -7.06 -7.10 -7.09 -7.10 -7.17 -7.29 -7.26 -7.24 -7.26 -7.28 -7.37 -7.36 -7.43 -7.36 -7.38 -7.43 -7.44 -7.43 -7.43 -7.58 -7.46 -7.48 -7.49 -7.51 -7.51 -7.52 -7.60 -7.56 -7.51 -7.53 -7.56 -7.54 -7.56 -7.64 -7.74 -7.67 -7.69 -7.71 -7.67 -7.72 -7.77 -7.74 -7.77 -7.77 -7.70 -7.76 -7.66 -7.70 -7.71 -7.72 -7.72 -7.75 -7.78 -7.82 -7.83 -7.88 -7.95 -7.86 -7.89 -7.88 -7.93 -7.94 -7.95 -7.91 -7.90 -7.88 -7.87 -7.92 -8.06 -8.07 -8.21 -8.22 -8.22 -8.25 -8.44 -8.43 -8.43 -8.46 -8.52
-0.19 -0.20 -0.27 -0.19 -0.32 -0.35 -0.40 -0.37 -0.35 -0.34 -0.35 -0.39 -0.45 -0.37 -0.43 -0.48 -0.44 -0.42 -0.41 -0.38 -0.42 -0.48 -0.54 -0.57 -0.53 -0.56 -0.60 -0.65 -0.68 -0.72 -0.75 -0.78 -0.82 -0.88 -0.94 -1.00 -1.03 -1.02 -1.01 -1.10 -1.10 -1.11 -1.13 -1.20 -1.25 -1.33 -1.39 -1.42 -1.46 -1.50 -1.54 -1.61 -1.72 -1.81 -1.94 -1.99 -2.05 -2.20 -2.36 -2.32 -2.26 -2.33 -2.42 -2.54 -2.63 -2.55 -2.62 -2.67 -2.72 -2.80 -2.79 -2.89 -2.95 -2.98 -3.00 -2.98 -3.11 -3.21 -3.28 -3.33 -3.16 -3.40 -3.37 -3.47 -3.70 -3.68 -3.65 -3.62 -3.61 -3.60 -3.55 -3.72 -3.83 -3.77 -3.71 -3.80 -3.81 -3.85 -3.73 -3.78 -3.81 -3.84 -3.87 -3.91 -3.94 -3.97 -4.00 -4.03 -4.07 -4.10 -4.14 -4.18 -4.21 -4.23 -4.25 -4.28 -4.30 -4.29 -4.27 -4.25 -4.22 -4.20 -4.17 -4.18 -4.18 -4.19 -4.19 -4.20 -4.21 -4.22 -4.23 -4.25 -4.26 -4.27 -4.27 -4.25 -4.23 -4.22 -4.20 -4.21 -4.23 -4.24 -4.25 -4.27 -4.28 -4.36 -4.44 -4.53 -4.60 -4.69 -4.72 -4.72 -4.73 -4.75 -4.75 -4.75 -4.71 -4.73 -4.68 -4.59 -4.47 -4.39 -4.39 -4.46 -4.55 -4.62 -4.72 -4.82 -4.80 -4.81 -4.86 -4.91 -4.81 -4.69 -4.57 -4.54 -4.44 -4.43 -4.49 -4.57 -4.68 -4.76 -4.81 -4.82 -4.92 -4.96 -5.02 -5.02 -5.01 -5.04 -5.05 -5.02 -5.07 -5.13 -5.12 -5.07 -5.02 -5.05 -5.21 -5.25 -5.27 -5.30 -5.30 -5.31 -5.33 -5.21 -5.13 -5.23 -5.27 -5.30 -5.37 -5.22 -5.13 -5.05 -5.01 -5.00 -4.88 -4.89 -4.86 -4.97 -5.01 -5.05 -5.09 -5.24 -5.24 -5.26 -5.40 -5.45 -5.44 -5.51 -5.50 -5.52 -5.58 -5.66 -5.69 -5.94 -5.78 -5.83 -5.89 -5.99 -5.98 -5.83 -5.85 -5.87 -6.01 -6.10 -6.10 -6.08 -5.96 -6.04 -6.17 -6.17 -6.27 -6.25 -6.23 -6.26 -6.31 -6.35 -6.34 -6.39 -6.39 -6.41 -6.30 -6.28 -6.42 -6.35 -6.28 -6.23 -6.28 -6.34 -6.22 -6.17 -6.28 -6.35 -6.29 -6.32 -6.30 -6.35 -6.34 -6.34 -6.37 -6.37 -6.31 -6.34 -6.43 -6.47 -6.47 -6.48 -6.53 -6.54 -6.62 -6.65 -6.75 -6.77 -6.85 -6.94 -6.91 -6.92 -7.06 -7.05 -7.10 -7.18 -7.15 -7.17 -7.22 -7.24 -7.24 -7.22 -7.27 -7.27 -7.38 -7.35 -7.38 -7.36 -7.42 -7.48 -7.38 -7.37 -7.45 -7.54 -7.42 -7.44 -7.50 -7.50 -7.41 -7.51 -7.47 -7.39 -7.42 -7.43 -7.43 -7.49 -7.59 -7.68 -7.71 -7.63 -7.71 -7.64 -7.70 -7.76 -7.71 -7.70 -7.74 -7.69 -7.68 -7.65 -7.60 -7.67 -7.73 -7.76 -7.77 -7.79 -7.82 -7.80 -7.85 -7.96 -7.91 -7.87 -7.87 -7.89 -7.96 -7.92 -8.04 -7.89 -7.92 -7.98 -7.98 -8.05 -8.12 -8.16 -8.31 -8.24 -8.24 -8.32 -8.45 -8.45 -8.45
0.01 -0.09 -0.02 0.04 -0.07 -0.08 -0.14 -0.11 -0.12 -0.12 -0.14 -0.18 -0.29 -0.27 -0.28 -0.32 -0.26 -0.24 -0.21 -0.22 -0.25 -0.25 -0.30 -0.41 -0.41 -0.40 -0.41 -0.43 -0.49 -0.52 -0.61 -0.60 -0.64 -0.69 -0.74 -0.80 -0.83 -0.84 -0.83 -0.87 -0.89 -0.94 -1.02 -1.06 -1.13 -1.19 -1.22 -1.25 -1.29 -1.32 -1.35 -1.41 -1.48 -1.56 -1.64 -1.75 -1.83 -1.96 -2.08 -1.97 -2.01 -2.06 -2.15 -2.23 -2.30 -2.32 -2.37 -2.43 -2.47 -2.48 -2.55 -2.61 -2.65 -2.66 -2.69 -2.78 -2.87 -2.94 -2.97 -3.00 -3.11 -3.07 -3.21 -3.26 -3.30 -3.24 -3.24 -3.27 -3.31 -3.40 -3.55 -3.55 -3.49 -3.46 -3.48 -3.61 -3.62 -3.53 -3.61 -3.69 -3.71 -3.74 -3.77 -3.80 -3.84 -3.83 -3.86 -3.90 -3.93 -3.96 -3.99 -4.03 -4.04 -4.04 -4.05 -4.05 -4.06 -4.06 -4.08 -4.08 -4.09 -4.10 -4.10 -4.11 -4.12 -4.13 -4.14 -4.14 -4.15 -4.16 -4.17 -4.16 -4.16 -4.17 -4.16 -4.15 -4.14 -4.13 -4.13 -4.14 -4.14 -4.15 -4.16 -4.17 -4.20 -4.25 -4.30 -4.36 -4.45 -4.53 -4.51 -4.52 -4.52 -4.52 -4.53 -4.56 -4.60 -4.64 -4.64 -4.58 -4.62 -4.55 -4.53 -4.50 -4.44 -4.45 -4.58 -4.60 -4.65 -4.70 -4.69 -4.68 -4.63 -4.63 -4.60 -4.49 -4.39 -4.41 -4.39 -4.37 -4.47 -4.55 -4.65 -4.72 -4.72 -4.80 -4.82 -4.90 -4.93 -4.93 -4.93 -4.94 -4.98 -5.00 -5.05 -5.07 -4.98 -4.95 -4.92 -5.13 -5.17 -5.23 -5.27 -5.27 -5.15 -4.92 -4.71 -4.61 -4.61 -4.79 -5.02 -5.10 -5.05 -4.97 -4.83 -4.75 -4.70 -4.87 -4.83 -4.81 -4.80 -4.92 -4.98 -5.02 -5.09 -5.23 -5.33 -5.32 -5.44 -5.44 -5.45 -5.50 -5.50 -5.49 -5.47 -5.59 -5.67 -5.83 -5.71 -5.79 -5.90 -5.98 -6.07 -5.81 -5.84 -5.90 -5.98 -6.06 -6.06 -6.03 -5.98 -5.99 -6.12 -6.12 -6.30 -6.28 -6.26 -6.27 -6.25 -6.21 -6.29 -6.24 -6.20 -6.29 -6.20 -6.25 -6.30 -6.19 -6.18 -6.10 -6.15 -6.25 -6.16 -6.15 -6.25 -6.32 -6.20 -6.21 -6.26 -6.28 -6.31 -6.32 -6.34 -6.32 -6.32 -6.39 -6.47 -6.43 -6.47 -6.41 -6.64 -6.66 -6.69 -6.74 -6.86 -6.88 -6.98 -6.99 -6.93 -6.91 -7.02 -7.10 -7.18 -7.20 -7.19 -7.19 -7.27 -7.27 -7.23 -7.20 -7.28 -7.27 -7.37 -7.32 -7.34 -7.32 -7.41 -7.39 -7.33 -7.34 -7.45 -7.47 -7.38 -7.42 -7.48 -7.37 -7.39 -7.48 -7.32 -7.31 -7.34 -7.41 -7.43 -7.50 -7.59 -7.69 -7.67 -7.61 -7.71 -7.58 -7.73 -7.76 -7.64 -7.64 -7.67 -7.60 -7.66 -7.58 -7.65 -7.71 -7.77 -7.75 -7.78 -7.81 -7.79 -7.83 -7.88 -7.96 -7.88 -7.84 -7.85 -7.92 -7.95 -7.92 -8.09 -7.95 -8.01 -8.08 -8.09 -8.17 -8.19 -8.34 -8.30 -8.29 -8.33 -8.38 -8.45
0.13 0.15 0.20 0.26 0.21 0.13 0.07 0.11 0.11 0.09 0.04 0.02 -0.08 -0.09 -0.09 -0.10 -0.07 -0.09 -0.04 -0.04 -0.03 -0.04 -0.14 -0.18 -0.18 -0.21 -0.25 -0.28 -0.30 -0.32 -0.46 -0.67 -0.49 -0.54 -0.56 -0.60 -0.62 -0.67 -0.65 -0.68 -0.73 -0.79 -0.86 -0.93 -0.99 -1.01 -1.05 -1.10 -1.12 -1.14 -1.18 -1.23 -1.30 -1.36 -1.42 -1.46 -1.54 -1.68 -1.74 -1.70 -1.77 -1.85 -1.89 -1.95 -2.02 -2.08 -2.14 -2.17 -2.21 -2.25 -2.30 -2.35 -2.39 -2.43 -2.46 -2.53 -2.55 -2.61 -2.65 -2.70 -2.76 -2.80 -2.85 -2.90 -2.93 -3.00 -3.04 -3.09 -3.13 -3.23 -3.24 -3.26 -3.30 -3.33 -3.32 -3.36 -3.35 -3.40 -3.50 -3.54 -3.53 -3.57 -3.59 -3.62 -3.70 -3.76 -3.78 -3.80 -3.85 -3.89 -3.94 -3.99 -3.99 -3.99 -3.99 -3.98 -3.97 -4.00 -3.99 -4.00 -4.00 -4.01 -4.02 -4.02 -4.03 -4.06 -4.06 -4.07 -4.08 -4.09 -4.08 -4.06 -4.06 -4.08 -4.13 -4.11 -4.06 -4.04 -4.02 -4.02 -4.05 -4.05 -4.06 -4.08 -4.09 -4.11 -4.16 -4.21 -4.25 -4.31 -4.34 -4.35 -4.37 -4.37 -4.35 -4.39 -4.43 -4.49 -4.53 -4.57 -4.57 -4.57 -4.58 -4.58 -4.55 -4.59 -4.45 -4.42 -4.52 -4.55 -4.62 -4.64 -4.58 -4.53 -4.47 -4.40 -4.37 -4.29 -4.26 -4.29 -4.30 -4.33 -4.41 -4.52 -4.59 -4.65 -4.69 -4.76 -4.76 -4.84 -4.85 -4.84 -4.83 -4.85 -4.90 -4.95 -5.02 -4.90 -4.90 -4.88 -4.97 -5.08 -5.13 -5.19 -5.17 -5.03 -4.71 -4.30 -4.07 -4.11 -4.31 -4.60 -4.71 -4.83 -4.76 -4.65 -4.62 -4.67 -4.73 -4.85 -4.81 -4.74 -4.81 -4.94 -4.97 -4.99 -5.12 -5.23 -5.37 -5.35 -5.39 -5.41 -5.48 -5.47 -5.53 -5.52 -5.46 -5.60 -5.65 -5.73 -5.66 -5.72 -5.84 -5.88 -6.04 -6.00 -5.87 -5.93 -5.96 -6.05 -6.06 -6.06 -6.03 -5.97 -6.05 -6.08 -6.32 -6.24 -6.25 -6.24 -6.13 -6.09 -6.23 -6.14 -6.16 -6.20 -6.16 -6.22 -6.18 -6.09 -6.05 -6.00 -6.12 -6.16 -6.16 -6.13 -6.24 -6.26 -6.14 -6.20 -6.23 -6.28 -6.26 -6.33 -6.37 -6.34 -6.41 -6.47 -6.47 -6.49 -6.49 -6.57 -6.74 -6.77 -6.77 -6.85 -6.91 -6.92 -7.01 -6.96 -6.94 -6.92 -6.99 -7.15 -7.14 -7.15 -7.20 -7.20 -7.34 -7.33 -7.21 -7.19 -7.26 -7.28 -7.35 -7.27 -7.29 -7.31 -7.40 -7.28 -7.27 -7.34 -7.44 -7.39 -7.33 -7.31 -7.30 -7.27 -7.39 -7.28 -7.20 -7.35 -7.38 -7.47 -7.45 -7.51 -7.60 -7.67 -7.55 -7.68 -7.69 -7.59 -7.70 -7.64 -7.56 -7.57 -7.66 -7.59 -7.70 -7.66 -7.73 -7.76 -7.81 -7.84 -7.81 -7.77 -7.79 -7.79 -7.81 -7.86 -7.83 -7.82 -7.89 -7.94 -7.99 -7.97 -8.11 -8.01 -8.09 -8.17 -8.19 -8.21 -8.30 -8.35 -8.32 -8.34 -8.40
0.10 0.19 0.29 0.37 0.40 0.34 0.31 0.33 0.34 0.26 0.25 0.22 0.20 0.07 0.07 0.08 0.07 0.07 0.08 0.09 0.05 0.12 0.07 0.05 0.00 0.00 -0.04 -0.08 -0.11 -0.15 -0.16 -0.22 -0.32 -0.35 -0.36 -0.38 -0.45 -0.49 -0.50 -0.53 -0.57 -0.63 -0.67 -0.75 -0.81 -0.85 -0.87 -0.91 -0.94 -0.97 -1.01 -1.04 -1.11 -1.17 -1.23 -1.27 -1.31 -1.37 -1.44 -1.47 -1.55 -1.61 -1.68 -1.72 -1.77 -1.83 -1.88 -1.92 -2.00 -2.02 -2.07 -2.10 -2.13 -2.18 -2.19 -2.24 -2.30 -2.36 -2.41 -2.48 -2.50 -2.55 -2.58 -2.65 -2.72 -2.81 -2.79 -2.83 -2.90 -2.92 -3.04 -3.05 -3.07 -3.11 -3.13 -3.18 -3.20 -3.26 -3.28 -3.31 -3.34 -3.37 -3.43 -3.47 -3.49 -3.51 -3.56 -3.60 -3.64 -3.67 -3.69 -3.76 -3.81 -3.84 -3.87 -3.89 -3.91 -3.91 -3.90 -3.91 -3.92 -3.92 -3.93 -3.94 -3.95 -3.95 -3.96 -3.97 -3.95 -3.97 -3.99 -3.96 -3.97 -3.99 -3.99 -3.99 -3.95 -3.94 -3.93 -3.95 -3.96 -3.95 -3.95 -3.96 -3.97 -3.98 -4.02 -4.04 -4.07 -4.12 -4.17 -4.17 -4.17 -4.19 -4.22 -4.25 -4.30 -4.35 -4.39 -4.44 -4.46 -4.49 -4.54 -4.55 -4.56 -4.58 -4.50 -4.49 -4.37 -4.38 -4.45 -4.45 -4.46 -4.47 -4.44 -4.38 -4.32 -4.22 -4.19 -4.17 -4.19 -4.18 -4.22 -4.26 -4.36 -4.46 -4.53 -4.59 -4.66 -4.70 -4.69 -4.71 -4.74 -4.77 -4.79 -4.77 -4.79 -4.82 -4.87 -4.82 -4.83 -4.91 -5.01 -5.04 -4.99 -4.92 -4.87 -4.70 -4.34 -4.13 -4.10 -4.18 -4.28 -4.47 -4.50 -4.58 -4.61 -4.64 -4.63 -4.70 -4.77 -4.82 -4.84 -4.83 -4.89 -4.98 -4.98 -5.04 -5.08 -5.24 -5.37 -5.38 -5.37 -5.36 -5.50 -5.47 -5.51 -5.54 -5.50 -5.59 -5.64 -5.63 -5.58 -5.69 -5.71 -5.84 -5.98 -5.94 -5.89 -5.93 -6.00 -6.02 -6.06 -6.06 -6.11 -6.04 -5.99 -6.05 -6.16 -6.10 -6.22 -6.21 -6.00 -6.08 -6.15 -6.10 -6.04 -6.12 -6.09 -6.14 -5.99 -6.06 -6.04 -6.03 -6.11 -6.13 -6.13 -6.12 -6.17 -6.17 -6.10 -6.20 -6.19 -6.30 -6.28 -6.31 -6.40 -6.39 -6.47 -6.50 -6.49 -6.58 -6.53 -6.73 -6.83 -6.89 -6.84 -6.89 -6.90 -6.87 -7.02 -6.93 -6.96 -6.92 -7.04 -7.18 -7.11 -7.10 -7.18 -7.20 -7.30 -7.24 -7.17 -7.18 -7.24 -7.26 -7.25 -7.17 -7.17 -7.36 -7.30 -7.23 -7.23 -7.43 -7.36 -7.32 -7.24 -7.17 -7.15 -7.28 -7.46 -7.25 -7.32 -7.41 -7.44 -7.53 -7.47 -7.52 -7.65 -7.67 -7.53 -7.65 -7.60 -7.61 -7.58 -7.53 -7.50 -7.56 -7.70 -7.69 -7.76 -7.74 -7.79 -7.83 -7.81 -7.81 -7.79 -7.79 -7.82 -7.82 -7.80 -7.78 -7.83 -7.88 -7.94 -7.98 -8.03 -8.01 -8.13 -8.08 -8.14 -8.22 -8.20 -8.25 -8.36 -8.35 -8.39
0.15 0.17 0.23 0.27 0.25 0.24 0.33 0.43 0.43 0.41 0.39 0.37 0.37 0.35 0.36 0.24 0.21 0.20 0.17 0.12 0.17 0.20 0.17 0.24 0.22 0.18 0.15 0.08 0.06 0.03 -0.00 -0.06 -0.11 -0.11 -0.14 -0.15 -0.23 -0.27 -0.32 -0.34 -0.37 -0.45 -0.51 -0.56 -0.60 -0.67 -0.69 -0.74 -0.77 -0.79 -0.84 -0.87 -0.92 -0.98 -1.03 -1.09 -1.14 -1.17 -1.20 -1.24 -1.32 -1.39 -1.45 -1.49 -1.52 -1.57 -1.61 -1.68 -1.79 -1.78 -1.82 -1.87 -1.91 -1.94 -1.97 -2.01 -2.07 -2.12 -2.18 -2.21 -2.26 -2.29 -2.35 -2.39 -2.44 -2.52 -2.52 -2.59 -2.62 -2.68 -2.77 -2.86 -2.88 -2.90 -2.92 -2.96 -2.98 -3.03 -3.07 -3.11 -3.15 -3.18 -3.22 -3.22 -3.27 -3.33 -3.36 -3.41 -3.44 -3.46 -3.50 -3.57 -3.59 -3.61 -3.64 -3.67 -3.72 -3.74 -3.75 -3.75 -3.77 -3.78 -3.80 -3.77 -3.75 -3.77 -3.78 -3.82 -3.86 -3.87 -3.88 -3.90 -3.92 -3.90 -3.88 -3.86 -3.84 -3.82 -3.84 -3.86 -3.88 -3.90 -3.90 -3.89 -3.89 -3.89 -3.87 -3.86 -3.90 -3.94 -3.97 -4.01 -4.07 -4.06 -4.05 -4.06 -4.08 -4.12 -4.16 -4.23 -4.29 -4.33 -4.41 -4.44 -4.47 -4.48 -4.48 -4.42 -4.38 -4.33 -4.32 -4.28 -4.30 -4.29 -4.29 -4.30 -4.29 -4.23 -4.17 -4.11 -4.12 -4.07 -4.13 -4.04 -4.17 -4.22 -4.32 -4.41 -4.46 -4.53 -4.57 -4.55 -4.54 -4.57 -4.65 -4.74 -4.66 -4.67 -4.62 -4.65 -4.68 -4.75 -4.81 -4.87 -4.87 -4.81 -4.74 -4.59 -4.53 -4.44 -4.33 -4.36 -4.16 -4.32 -4.40 -4.40 -4.44 -4.51 -4.62 -4.67 -4.62 -4.74 -4.81 -4.84 -4.90 -4.91 -4.99 -5.04 -5.01 -5.09 -5.18 -5.22 -5.36 -5.40 -5.37 -5.38 -5.49 -5.48 -5.49 -5.56 -5.49 -5.56 -5.57 -5.58 -5.59 -5.68 -5.68 -5.72 -5.91 -5.89 -5.86 -5.88 -5.97 -6.00 -6.06 -6.07 -6.06 -6.08 -6.00 -6.00 -6.04 -6.04 -6.16 -6.06 -6.00 -5.99 -6.00 -6.00 -5.94 -6.05 -6.03 -6.05 -5.98 -5.95 -6.02 -6.00 -6.05 -6.14 -6.11 -6.09 -6.07 -6.06 -6.08 -6.19 -6.25 -6.32 -6.28 -6.30 -6.46 -6.44 -6.46 -6.54 -6.59 -6.59 -6.68 -6.82 -6.85 -6.81 -6.85 -6.89 -6.88 -6.86 -7.02 -6.98 -7.00 -6.91 -7.05 -7.16 -7.08 -7.05 -7.14 -7.15 -7.21 -7.12 -7.13 -7.15 -7.17 -7.17 -7.14 -7.07 -7.13 -7.32 -7.18 -7.15 -7.23 -7.21 -7.22 -7.19 -7.06 -7.14 -7.29 -7.38 -7.33 -7.32 -7.37 -7.44 -7.50 -7.59 -7.51 -7.54 -7.62 -7.59 -7.50 -7.60 -7.54 -7.53 -7.53 -7.55 -7.59 -7.65 -7.76 -7.80 -7.83 -7.83 -7.84 -7.83 -7.79 -7.80 -7.79 -7.80 -7.79 -7.78 -7.79 -7.84 -7.89 -7.93 -7.95 -8.03 -8.07 -8.06 -8.14 -8.12 -8.20 -8.18 -8.21 -8.32 -8.37
0.31 0.30 0.38 0.39 0.36 0.36 0.36 0.46 0.44 0.42 0.38 0.34 0.28 0.29 0.32 0.31 0.31 0.23 0.21 0.31 0.32 0.34 0.35 0.32 0.32 0.32 0.33 0.22 0.23 0.17 0.13 0.15 0.10 0.04 0.05 0.01 -0.05 -0.05 -0.16 -0.16 -0.22 -0.27 -0.33 -0.37 -0.43 -0.45 -0.54 -0.56 -0.58 -0.60 -0.64 -0.70 -0.75 -0.81 -0.86 -0.90 -0.93 -0.95 -1.01 -1.07 -1.12 -1.15 -1.19 -1.24 -1.31 -1.35 -1.40 -1.44 -1.49 -1.55 -1.58 -1.62 -1.67 -1.71 -1.74 -1.78 -1.83 -1.88 -1.92 -1.97 -1.99 -2.07 -2.09 -2.14 -2.19 -2.24 -2.30 -2.33 -2.37 -2.39 -2.47 -2.54 -2.57 -2.60 -2.65 -2.71 -2.74 -2.77 -2.81 -2.84 -2.89 -2.95 -2.99 -3.02 -3.06 -3.08 -3.12 -3.16 -3.20 -3.27 -3.32 -3.36 -3.41 -3.44 -3.46 -3.50 -3.54 -3.58 -3.62 -3.65 -3.69 -3.72 -3.76 -3.72 -3.68 -3.61 -3.54 -3.52 -3.60 -3.65 -3.75 -3.84 -3.84 -3.83 -3.78 -3.76 -3.75 -3.72 -3.71 -3.72 -3.74 -3.76 -3.77 -3.79 -3.80 -3.82 -3.80 -3.77 -3.77 -3.79 -3.81 -3.88 -3.90 -3.91 -4.01 -4.05 -4.04 -3.99 -3.98 -4.02 -4.10 -4.18 -4.22 -4.25 -4.33 -4.33 -4.38 -4.37 -4.32 -4.28 -4.22 -4.22 -4.20 -4.17 -4.13 -4.14 -4.14 -4.12 -4.11 -4.07 -4.01 -3.89 -3.90 -4.02 -4.10 -4.06 -4.10 -4.18 -4.28 -4.32 -4.31 -4.32 -4.40 -4.38 -4.38 -4.52 -4.51 -4.57 -4.56 -4.51 -4.49 -4.48 -4.56 -4.63 -4.70 -4.68 -4.70 -4.68 -4.55 -4.43 -4.37 -4.31 -4.20 -4.14 -4.14 -4.28 -4.39 -4.38 -4.43 -4.51 -4.61 -4.67 -4.65 -4.77 -4.84 -4.94 -4.93 -4.99 -5.01 -5.05 -5.07 -5.14 -5.20 -5.22 -5.38 -5.40 -5.39 -5.40 -5.45 -5.48 -5.49 -5.57 -5.55 -5.50 -5.60 -5.53 -5.59 -5.71 -5.62 -5.75 -5.85 -5.84 -5.85 -5.86 -5.84 -5.98 -6.05 -5.95 -6.02 -5.99 -6.13 -5.92 -5.96 -6.10 -6.09 -5.93 -5.91 -5.94 -6.00 -5.91 -5.90 -6.01 -6.02 -6.04 -5.89 -6.00 -6.00 -6.03 -6.06 -6.00 -6.09 -6.03 -6.06 -6.08 -6.16 -6.20 -6.28 -6.35 -6.34 -6.39 -6.51 -6.50 -6.48 -6.59 -6.71 -6.63 -6.73 -6.81 -6.73 -6.77 -6.87 -6.86 -6.80 -6.90 -7.02 -7.04 -7.04 -6.91 -7.10 -7.12 -7.07 -7.04 -7.10 -7.08 -7.14 -7.07 -7.07 -7.11 -7.08 -7.07 -7.03 -6.97 -7.10 -7.23 -7.12 -7.13 -7.12 -7.07 -7.13 -7.15 -7.18 -7.31 -7.35 -7.48 -7.35 -7.40 -7.46 -7.46 -7.57 -7.62 -7.50 -7.58 -7.59 -7.51 -7.44 -7.57 -7.54 -7.56 -7.62 -7.64 -7.71 -7.75 -7.83 -7.90 -7.84 -7.82 -7.83 -7.78 -7.79 -7.80 -7.80 -7.81 -7.84 -7.82 -7.84 -7.90 -7.95 -8.01 -7.98 -8.07 -8.09 -8.09 -8.17 -8.12 -8.20 -8.18 -8.32
0.39 0.41 0.48 0.51 0.48 0.50 0.48 0.49 0.46 0.43 0.38 0.36 0.39 0.37 0.29 0.32 0.30 0.26 0.30 0.41 0.42 0.45 0.39 0.43 0.47 0.41 0.46 0.41 0.39 0.33 0.27 0.31 0.28 0.18 0.15 0.12 0.09 0.07 0.04 0.04 -0.06 -0.08 -0.14 -0.22 -0.26 -0.27 -0.35 -0.36 -0.38 -0.44 -0.50 -0.55 -0.58 -0.63 -0.67 -0.71 -0.76 -0.75 -0.83 -0.89 -0.94 -0.97 -1.01 -1.04 -1.10 -1.17 -1.19 -1.23 -1.27 -1.31 -1.35 -1.40 -1.43 -1.47 -1.50 -1.52 -1.58 -1.63 -1.69 -1.74 -1.79 -1.80 -1.85 -1.90 -1.95 -2.00 -2.06 -2.09 -2.10 -2.15 -2.20 -2.24 -2.28 -2.32 -2.38 -2.44 -2.48 -2.53 -2.57 -2.62 -2.66 -2.70 -2.74 -2.78 -2.80 -2.85 -2.89 -2.93 -2.97 -3.01 -3.07 -3.11 -3.16 -3.20 -3.25 -3.30 -3.34 -3.38 -3.44 -3.48 -3.51 -3.54 -3.58 -3.59 -3.58 -3.61 -3.60 -3.60 -3.55 -3.58 -3.58 -3.66 -3.72 -3.73 -3.73 -3.67 -3.63 -3.59 -3.62 -3.64 -3.64 -3.66 -3.70 -3.68 -3.69 -3.71 -3.75 -3.75 -3.71 -3.70 -3.71 -3.72 -3.73 -3.83 -3.87 -3.91 -3.99 -4.05 -4.11 -3.97 -3.94 -4.02 -4.07 -4.17 -4.26 -4.30 -4.29 -4.28 -4.29 -4.24 -4.16 -4.08 -4.02 -3.99 -4.01 -4.03 -4.01 -3.98 -3.96 -3.92 -3.89 -3.89 -3.92 -3.96 -3.93 -3.99 -4.06 -4.04 -4.08 -4.11 -4.13 -4.11 -4.09 -4.09 -4.17 -4.29 -4.31 -4.39 -4.43 -4.40 -4.38 -4.35 -4.35 -4.35 -4.42 -4.49 -4.51 -4.48 -4.44 -4.34 -4.24 -4.25 -4.15 -4.15 -4.10 -4.09 -4.16 -4.26 -4.32 -4.37 -4.44 -4.51 -4.62 -4.69 -4.70 -4.81 -4.88 -4.96 -4.93 -4.98 -5.00 -5.05 -5.13 -5.19 -5.18 -5.30 -5.36 -5.43 -5.40 -5.42 -5.42 -5.48 -5.46 -5.51 -5.64 -5.53 -5.51 -5.49 -5.58 -5.63 -5.57 -5.76 -5.76 -5.78 -5.81 -5.90 -5.79 -5.87 -6.04 -5.86 -5.95 -5.92 -5.99 -5.91 -5.95 -6.03 -5.99 -5.88 -5.87 -5.87 -5.94 -5.88 -5.89 -5.93 -5.96 -5.99 -5.87 -5.97 -6.01 -5.94 -5.97 -6.05 -6.08 -6.08 -6.11 -6.11 -6.23 -6.25 -6.33 -6.42 -6.44 -6.48 -6.57 -6.52 -6.52 -6.62 -6.66 -6.64 -6.72 -6.78 -6.67 -6.81 -6.83 -6.81 -6.75 -6.94 -7.01 -7.05 -6.97 -6.93 -7.07 -7.04 -7.07 -7.01 -7.06 -7.01 -7.07 -7.03 -7.01 -7.08 -7.00 -6.96 -6.96 -6.99 -7.01 -7.11 -7.06 -7.01 -7.06 -7.15 -7.23 -7.22 -7.33 -7.42 -7.49 -7.40 -7.40 -7.40 -7.48 -7.52 -7.59 -7.52 -7.52 -7.60 -7.53 -7.50 -7.53 -7.57 -7.60 -7.62 -7.71 -7.74 -7.81 -7.82 -7.82 -7.82 -7.80 -7.79 -7.77 -7.77 -7.79 -7.82 -7.83 -7.86 -7.90 -7.86 -7.89 -7.95 -8.03 -8.04 -8.02 -8.09 -8.10 -8.13 -8.18 -8.23 -8.22
0.44 0.54 0.59 0.61 0.60 0.62 0.60 0.60 0.53 0.50 0.49 0.45 0.45 0.43 0.46 0.37 0.33 0.44 0.47 0.49 0.50 0.53 0.52 0.49 0.52 0.53 0.46 0.41 0.45 0.40 0.42 0.44 0.30 0.28 0.26 0.26 0.21 0.22 0.20 0.18 0.15 0.08 0.04 0.00 -0.06 -0.12 -0.20 -0.21 -0.27 -0.30 -0.34 -0.40 -0.43 -0.45 -0.49 -0.57 -0.59 -0.59 -0.66 -0.72 -0.76 -0.79 -0.83 -0.86 -0.94 -0.95 -0.99 -1.03 -1.07 -1.11 -1.12 -1.17 -1.21 -1.26 -1.28 -1.31 -1.36 -1.42 -1.48 -1.52 -1.53 -1.58 -1.64 -1.69 -1.73 -1.79 -1.79 -1.82 -1.86 -1.91 -1.95 -1.98 -2.01 -2.04 -2.11 -2.15 -2.20 -2.24 -2.28 -2.32 -2.38 -2.42 -2.45 -2.49 -2.53 -2.57 -2.57 -2.62 -2.65 -2.72 -2.77 -2.83 -2.90 -2.95 -2.99 -3.04 -3.10 -3.16 -3.21 -3.27 -3.33 -3.39 -3.44 -3.46 -3.44 -3.45 -3.49 -3.47 -3.47 -3.51 -3.53 -3.52 -3.55 -3.54 -3.53 -3.52 -3.49 -3.45 -3.48 -3.51 -3.55 -3.58 -3.59 -3.60 -3.55 -3.55 -3.59 -3.64 -3.68 -3.70 -3.70 -3.67 -3.63 -3.64 -3.69 -3.74 -3.77 -3.86 -3.95 -3.98 -3.91 -3.83 -3.77 -3.76 -3.81 -3.87 -4.00 -4.07 -4.22 -4.20 -4.10 -4.02 -3.95 -3.88 -3.80 -3.76 -3.75 -3.78 -3.81 -3.80 -3.79 -3.80 -3.82 -3.83 -3.86 -3.92 -3.97 -3.98 -4.02 -3.98 -3.91 -3.91 -3.94 -3.88 -3.87 -3.95 -4.13 -4.20 -4.27 -4.28 -4.32 -4.29 -4.24 -4.21 -4.19 -4.20 -4.38 -4.38 -4.34 -4.16 -4.07 -4.00 -3.87 -4.03 -3.98 -4.07 -4.13 -4.17 -4.23 -4.34 -4.33 -4.39 -4.45 -4.50 -4.62 -4.70 -4.73 -4.84 -4.86 -4.92 -4.94 -4.98 -5.03 -5.06 -5.18 -5.24 -5.20 -5.34 -5.35 -5.47 -5.41 -5.42 -5.36 -5.46 -5.40 -5.63 -5.54 -5.53 -5.49 -5.52 -5.56 -5.55 -5.52 -5.72 -5.68 -5.72 -5.78 -5.84 -5.80 -5.85 -5.92 -5.82 -5.88 -5.85 -5.87 -5.89 -5.96 -5.94 -5.88 -5.82 -5.86 -5.88 -5.86 -5.85 -5.87 -5.92 -5.94 -5.84 -5.87 -5.97 -5.94 -6.02 -6.02 -6.08 -6.05 -6.16 -6.14 -6.18 -6.31 -6.30 -6.35 -6.46 -6.52 -6.58 -6.56 -6.45 -6.51 -6.56 -6.61 -6.64 -6.69 -6.69 -6.70 -6.85 -6.80 -6.75 -6.73 -6.91 -6.92 -6.88 -6.82 -6.95 -7.05 -6.99 -7.00 -6.94 -6.98 -6.95 -7.01 -6.95 -6.96 -7.04 -7.00 -7.01 -6.97 -7.05 -7.04 -7.06 -7.10 -7.12 -7.12 -7.24 -7.30 -7.38 -7.49 -7.44 -7.51 -7.43 -7.39 -7.45 -7.50 -7.51 -7.57 -7.51 -7.54 -7.60 -7.53 -7.49 -7.60 -7.63 -7.68 -7.67 -7.78 -7.69 -7.79 -7.74 -7.76 -7.74 -7.74 -7.78 -7.79 -7.82 -7.83 -7.84 -7.87 -7.91 -7.98 -7.91 -7.93 -8.01 -8.05 -8.06 -8.08 -8.09 -8.14 -8.20 -8.20
0.67 0.80 0.82 0.87 0.92 1.00 0.98 0.97 0.83 0.69 0.66 0.61 0.50 0.51 0.48 0.53 0.49 0.60 0.61 0.61 0.63 0.62 0.58 0.55 0.53 0.52 0.48 0.49 0.46 0.43 0.41 0.37 0.35 0.37 0.38 0.38 0.37 0.34 0.32 0.32 0.29 0.26 0.21 0.10 0.06 -0.00 -0.02 -0.09 -0.13 -0.19 -0.19 -0.22 -0.21 -0.30 -0.35 -0.41 -0.40 -0.47 -0.49 -0.53 -0.58 -0.61 -0.66 -0.71 -0.72 -0.74 -0.78 -0.83 -0.87 -0.92 -0.96 -1.00 -1.02 -1.04 -1.08 -1.10 -1.14 -1.21 -1.28 -1.29 -1.32 -1.36 -1.39 -1.43 -1.46 -1.50 -1.53 -1.58 -1.62 -1.65 -1.68 -1.71 -1.74 -1.79 -1.85 -1.88 -1.94 -1.98 -2.03 -2.07 -2.10 -2.14 -2.18 -2.20 -2.25 -2.25 -2.26 -2.32 -2.38 -2.46 -2.52 -2.56 -2.61 -2.69 -2.73 -2.79 -2.83 -2.89 -2.95 -3.01 -3.07 -3.13 -3.18 -3.21 -3.24 -3.28 -3.30 -3.32 -3.33 -3.36 -3.32 -3.35 -3.45 -3.42 -3.38 -3.38 -3.37 -3.33 -3.34 -3.37 -3.41 -3.46 -3.51 -3.48 -3.40 -3.34 -3.28 -3.25 -3.32 -3.39 -3.46 -3.54 -3.61 -3.57 -3.54 -3.52 -3.50 -3.54 -3.64 -3.71 -3.73 -3.77 -3.75 -3.64 -3.63 -3.67 -3.71 -3.75 -3.83 -3.85 -3.85 -3.86 -3.81 -3.74 -3.67 -3.61 -3.57 -3.56 -3.56 -3.49 -3.56 -3.58 -3.60 -3.66 -3.73 -3.77 -3.80 -3.85 -3.88 -3.90 -3.89 -3.86 -3.71 -3.70 -3.75 -3.71 -3.86 -3.96 -4.09 -4.12 -4.19 -4.22 -4.25 -4.23 -4.14 -4.08 -4.08 -4.08 -4.05 -4.08 -4.06 -3.84 -3.70 -3.66 -3.67 -3.95 -4.03 -4.10 -4.17 -4.24 -4.25 -4.32 -4.32 -4.40 -4.46 -4.50 -4.63 -4.70 -4.75 -4.83 -4.84 -4.91 -4.96 -5.00 -5.05 -5.14 -5.23 -5.20 -5.24 -5.33 -5.38 -5.40 -5.41 -5.41 -5.29 -5.42 -5.37 -5.62 -5.47 -5.47 -5.52 -5.49 -5.50 -5.48 -5.54 -5.65 -5.58 -5.70 -5.77 -5.73 -5.76 -5.77 -5.80 -5.76 -5.80 -5.78 -5.82 -5.88 -5.87 -5.90 -5.78 -5.86 -5.80 -5.79 -5.82 -5.84 -5.86 -5.85 -5.90 -5.80 -5.98 -6.02 -6.00 -6.13 -6.08 -6.05 -6.06 -6.20 -6.17 -6.27 -6.36 -6.36 -6.40 -6.53 -6.54 -6.59 -6.51 -6.41 -6.48 -6.55 -6.60 -6.62 -6.69 -6.65 -6.74 -6.84 -6.76 -6.72 -6.71 -6.78 -6.79 -6.72 -6.79 -6.93 -7.03 -6.93 -6.91 -6.89 -6.90 -6.89 -6.94 -6.92 -6.98 -7.03 -7.02 -7.06 -6.99 -7.11 -7.14 -7.12 -7.19 -7.24 -7.23 -7.34 -7.39 -7.53 -7.49 -7.51 -7.41 -7.42 -7.46 -7.46 -7.48 -7.59 -7.51 -7.52 -7.58 -7.57 -7.53 -7.51 -7.63 -7.74 -7.71 -7.74 -7.63 -7.73 -7.71 -7.67 -7.71 -7.72 -7.81 -7.81 -7.85 -7.85 -7.87 -7.90 -7.91 -8.00 -7.92 -7.95 -7.97 -8.05 -8.06 -8.07 -8.12 -8.14 -8.19
1.03 1.17 1.24 1.32 1.42 1.51 1.47 1.48 1.40 1.36 1.24 1.16 1.08 1.05 1.00 1.05 0.85 1.04 1.03 1.02 1.01 0.97 0.84 0.82 0.76 0.68 0.69 0.60 0.54 0.46 0.41 0.39 0.36 0.36 0.38 0.41 0.37 0.34 0.34 0.38 0.39 0.41 0.35 0.30 0.23 0.17 0.10 0.03 0.01 -0.05 -0.05 -0.05 -0.01 -0.14 -0.18 -0.21 -0.29 -0.32 -0.31 -0.36 -0.43 -0.46 -0.50 -0.53 -0.55 -0.56 -0.61 -0.65 -0.73 -0.75 -0.77 -0.79 -0.82 -0.87 -0.91 -0.92 -0.95 -1.04 -1.06 -1.09 -1.12 -1.16 -1.19 -1.22 -1.24 -1.26 -1.28 -1.32 -1.36 -1.39 -1.43 -1.47 -1.52 -1.57 -1.60 -1.65 -1.69 -1.72 -1.75 -1.79 -1.83 -1.87 -1.90 -1.95 -1.97 -1.98 -2.01 -2.06 -2.12 -2.18 -2.23 -2.27 -2.33 -2.38 -2.42 -2.47 -2.52 -2.58 -2.65 -2.73 -2.80 -2.87 -2.92 -2.97 -3.02 -3.07 -3.09 -3.11 -3.13 -3.16 -3.18 -3.20 -3.20 -3.18 -3.19 -3.24 -3.19 -3.18 -3.18 -3.18 -3.19 -3.22 -3.24 -3.20 -3.16 -3.12 -3.07 -3.03 -3.01 -3.05 -3.10 -3.16 -3.23 -3.28 -3.33 -3.35 -3.35 -3.34 -3.38 -3.39 -3.40 -3.45 -3.51 -3.59 -3.62 -3.60 -3.61 -3.69 -3.74 -3.70 -3.66 -3.62 -3.56 -3.54 -3.48 -3.42 -3.39 -3.38 -3.33 -3.35 -3.34 -3.36 -3.39 -3.43 -3.44 -3.53 -3.61 -3.68 -3.70 -3.71 -3.71 -3.75 -3.76 -3.69 -3.57 -3.58 -3.56 -3.70 -3.88 -3.99 -4.03 -4.02 -4.07 -4.14 -4.20 -4.27 -4.10 -3.83 -3.80 -3.72 -3.69 -3.72 -3.78 -3.60 -3.64 -3.75 -3.80 -3.93 -4.07 -4.14 -4.19 -4.26 -4.26 -4.30 -4.33 -4.42 -4.48 -4.53 -4.62 -4.68 -4.78 -4.80 -4.87 -4.95 -5.02 -4.97 -5.08 -5.20 -5.30 -5.16 -5.17 -5.22 -5.27 -5.28 -5.38 -5.40 -5.27 -5.40 -5.41 -5.48 -5.44 -5.47 -5.49 -5.46 -5.55 -5.45 -5.56 -5.61 -5.50 -5.64 -5.72 -5.68 -5.76 -5.69 -5.70 -5.70 -5.72 -5.74 -5.82 -5.83 -5.79 -5.84 -5.79 -5.83 -5.83 -5.82 -5.82 -5.89 -5.83 -5.83 -5.83 -5.78 -5.99 -6.01 -6.03 -6.17 -6.08 -6.03 -6.06 -6.20 -6.24 -6.35 -6.40 -6.35 -6.47 -6.50 -6.47 -6.61 -6.41 -6.45 -6.49 -6.54 -6.59 -6.56 -6.71 -6.62 -6.77 -6.82 -6.74 -6.73 -6.70 -6.68 -6.73 -6.76 -6.76 -6.90 -6.96 -6.87 -6.82 -6.83 -6.85 -6.91 -6.96 -6.97 -7.02 -7.05 -7.08 -7.09 -7.07 -7.14 -7.17 -7.18 -7.27 -7.31 -7.34 -7.45 -7.49 -7.47 -7.47 -7.41 -7.40 -7.47 -7.40 -7.42 -7.47 -7.53 -7.51 -7.55 -7.60 -7.55 -7.57 -7.61 -7.68 -7.72 -7.67 -7.64 -7.67 -7.68 -7.69 -7.73 -7.75 -7.85 -7.83 -7.86 -7.86 -7.87 -7.89 -7.91 -7.93 -7.98 -7.97 -7.95 -8.02 -8.07 -8.10 -8.12 -8.16
1.45 1.55 1.68 1.80 1.93 1.94 1.89 1.89 1.86 1.86 1.79 1.69 1.63 1.62 1.63 1.61 1.52 1.56 1.56 1.56 1.53 1.49 1.41 1.36 1.33 1.26 1.24 1.16 1.07 0.91 0.84 0.73 0.62 0.53 0.46 0.35 0.36 0.35 0.39 0.41 0.46 0.55 0.50 0.42 0.31 0.21 0.19 0.18 0.10 0.10 0.10 0.09 0.01 -0.06 -0.02 -0.06 -0.12 -0.16 -0.20 -0.23 -0.25 -0.31 -0.34 -0.36 -0.37 -0.43 -0.50 -0.52 -0.55 -0.60 -0.61 -0.63 -0.67 -0.70 -0.73 -0.76 -0.79 -0.83 -0.86 -0.90 -0.94 -0.97 -0.99 -1.02 -1.05 -1.08 -1.10 -1.15 -1.18 -1.20 -1.23 -1.25 -1.29 -1.32 -1.36 -1.40 -1.43 -1.49 -1.52 -1.53 -1.55 -1.59 -1.64 -1.68 -1.74 -1.73 -1.74 -1.79 -1.84 -1.89 -1.94 -1.98 -2.03 -2.07 -2.10 -2.14 -2.17 -2.22 -2.30 -2.38 -2.46 -2.54 -2.60 -2.65 -2.71 -2.77 -2.82 -2.86 -2.89 -2.93 -2.96 -2.99 -3.00 -2.97 -3.00 -3.01 -3.01 -2.99 -3.01 -3.01 -2.97 -3.01 -3.00 -2.98 -2.87 -2.83 -2.75 -2.67 -2.74 -2.83 -2.90 -2.97 -3.06 -3.10 -3.13 -3.16 -3.21 -3.22 -3.21 -3.24 -3.21 -3.22 -3.24 -3.29 -3.34 -3.39 -3.43 -3.49 -3.55 -3.55 -3.55 -3.53 -3.54 -3.51 -3.47 -3.40 -3.33 -3.26 -3.20 -3.20 -3.16 -3.21 -3.15 -3.20 -3.25 -3.26 -3.29 -3.32 -3.40 -3.49 -3.58 -3.55 -3.59 -3.58 -3.58 -3.51 -3.41 -3.42 -3.46 -3.71 -3.87 -3.90 -3.87 -3.88 -3.89 -4.07 -3.93 -3.80 -3.60 -3.52 -3.47 -3.40 -3.33 -3.49 -3.70 -3.67 -3.75 -3.82 -3.91 -3.96 -4.10 -4.17 -4.21 -4.27 -4.27 -4.29 -4.36 -4.42 -4.52 -4.60 -4.61 -4.67 -4.74 -4.75 -4.93 -5.00 -4.97 -4.98 -5.17 -5.19 -5.22 -5.10 -5.10 -5.13 -5.15 -5.20 -5.32 -5.37 -5.24 -5.40 -5.46 -5.39 -5.43 -5.48 -5.40 -5.45 -5.62 -5.42 -5.54 -5.58 -5.52 -5.58 -5.63 -5.68 -5.74 -5.61 -5.62 -5.69 -5.74 -5.74 -5.83 -5.64 -5.82 -5.79 -5.82 -5.81 -5.86 -5.85 -5.83 -5.84 -5.80 -5.88 -5.79 -5.90 -6.07 -6.00 -6.06 -6.14 -6.06 -6.01 -6.07 -6.23 -6.27 -6.31 -6.35 -6.48 -6.42 -6.57 -6.46 -6.58 -6.41 -6.50 -6.51 -6.51 -6.56 -6.50 -6.70 -6.61 -6.69 -6.79 -6.69 -6.73 -6.70 -6.70 -6.73 -6.76 -6.74 -6.91 -6.84 -6.81 -6.81 -6.86 -6.95 -7.00 -6.98 -7.03 -7.05 -7.10 -7.15 -7.11 -7.11 -7.15 -7.20 -7.24 -7.35 -7.35 -7.37 -7.39 -7.43 -7.41 -7.40 -7.37 -7.46 -7.41 -7.45 -7.45 -7.53 -7.49 -7.60 -7.57 -7.61 -7.56 -7.62 -7.64 -7.68 -7.69 -7.65 -7.62 -7.70 -7.71 -7.74 -7.78 -7.85 -7.84 -7.87 -7.86 -7.88 -7.90 -7.91 -7.94 -7.96 -7.96 -7.97 -7.95 -8.05 -8.11 -8.15
1.83 1.91 2.04 2.16 2.27 2.27 2.23 2.21 2.19 2.19 2.20 2.10 2.05 2.05 2.04 2.02 1.97 1.99 2.01 2.02 2.00 1.99 1.98 1.90 1.84 1.83 1.77 1.70 1.63 1.55 1.42 1.31 1.20 1.08 0.97 0.83 0.74 0.59 0.45 0.43 0.45 0.51 0.51 0.41 0.30 0.26 0.26 0.26 0.25 0.22 0.21 0.20 0.12 0.03 0.22 0.08 0.01 -0.00 -0.07 -0.14 -0.14 -0.19 -0.22 -0.25 -0.26 -0.32 -0.36 -0.38 -0.39 -0.43 -0.44 -0.47 -0.50 -0.53 -0.57 -0.60 -0.65 -0.64 -0.68 -0.71 -0.76 -0.78 -0.80 -0.82 -0.84 -0.87 -0.89 -0.91 -0.97 -1.00 -1.03 -1.07 -1.10 -1.12 -1.16 -1.21 -1.23 -1.29 -1.31 -1.32 -1.33 -1.34 -1.39 -1.45 -1.49 -1.49 -1.52 -1.56 -1.60 -1.64 -1.69 -1.74 -1.77 -1.78 -1.79 -1.81 -1.84 -1.87 -1.94 -2.01 -2.07 -2.14 -2.21 -2.29 -2.36 -2.42 -2.49 -2.52 -2.58 -2.64 -2.69 -2.74 -2.79 -2.80 -2.79 -2.78 -2.75 -2.77 -2.77 -2.76 -2.77 -2.73 -2.74 -2.77 -2.73 -2.68 -2.64 -2.60 -2.61 -2.64 -2.69 -2.76 -2.74 -2.81 -2.93 -2.99 -3.01 -3.05 -3.06 -3.05 -3.07 -3.07 -3.08 -3.07 -3.10 -3.15 -3.19 -3.23 -3.25 -3.27 -3.30 -3.37 -3.33 -3.33 -3.31 -3.33 -3.30 -3.21 -3.13 -3.09 -3.07 -3.05 -3.08 -3.09 -3.09 -3.07 -3.07 -3.12 -3.14 -3.22 -3.33 -3.34 -3.41 -3.47 -3.43 -3.37 -3.36 -3.33 -3.25 -3.25 -3.41 -3.53 -3.63 -3.73 -3.77 -3.62 -3.54 -3.55 -3.40 -3.22 -3.18 -3.25 -3.20 -3.35 -3.39 -3.56 -3.66 -3.73 -3.81 -3.86 -3.95 -4.04 -4.15 -4.20 -4.23 -4.24 -4.25 -4.30 -4.37 -4.47 -4.52 -4.60 -4.62 -4.66 -4.68 -4.71 -4.92 -5.06 -4.90 -4.92 -5.03 -5.18 -5.13 -5.02 -5.04 -5.06 -5.07 -5.17 -5.26 -5.34 -5.18 -5.40 -5.38 -5.34 -5.40 -5.40 -5.31 -5.40 -5.58 -5.41 -5.51 -5.52 -5.56 -5.52 -5.54 -5.67 -5.69 -5.57 -5.60 -5.70 -5.76 -5.71 -5.74 -5.60 -5.83 -5.72 -5.80 -5.82 -5.84 -5.85 -5.85 -5.82 -5.85 -5.86 -5.78 -5.95 -6.03 -5.97 -6.03 -6.08 -6.05 -6.03 -6.14 -6.19 -6.21 -6.35 -6.48 -6.39 -6.45 -6.56 -6.47 -6.49 -6.47 -6.53 -6.49 -6.53 -6.57 -6.52 -6.63 -6.60 -6.63 -6.76 -6.73 -6.75 -6.68 -6.73 -6.77 -6.73 -6.74 -6.89 -6.79 -6.83 -6.85 -6.95 -7.05 -7.06 -7.03 -7.07 -7.09 -7.14 -7.21 -7.15 -7.17 -7.18 -7.24 -7.30 -7.37 -7.32 -7.32 -7.35 -7.34 -7.42 -7.39 -7.45 -7.47 -7.45 -7.41 -7.50 -7.52 -7.48 -7.61 -7.65 -7.66 -7.59 -7.66 -7.64 -7.68 -7.70 -7.68 -7.69 -7.73 -7.76 -7.81 -7.82 -7.86 -7.88 -7.86 -7.87 -7.90 -7.92 -7.94 -7.93 -7.97 -8.03 -7.99 -8.03 -8.12
2.21 2.30 2.41 2.54 2.61 2.58 2.56 2.50 2.49 2.52 2.57 2.54 2.49 2.48 2.45 2.44 2.43 2.38 2.35 2.44 2.44 2.42 2.39 2.34 2.34 2.33 2.30 2.26 2.19 2.06 1.94 1.82 1.74 1.61 1.48 1.42 1.24 1.10 0.95 0.80 0.59 0.44 0.48 0.40 0.33 0.32 0.33 0.36 0.32 0.28 0.29 0.29 0.22 0.15 0.25 0.17 0.14 0.07 0.02 -0.05 -0.04 -0.08 -0.12 -0.15 -0.18 -0.22 -0.24 -0.25 -0.27 -0.30 -0.32 -0.29 -0.33 -0.37 -0.40 -0.43 -0.49 -0.51 -0.54 -0.55 -0.59 -0.64 -0.65 -0.66 -0.68 -0.71 -0.73 -0.74 -0.79 -0.84 -0.87 -0.91 -0.93 -0.96 -1.01 -1.03 -1.05 -1.07 -1.10 -1.12 -1.14 -1.14 -1.17 -1.23 -1.24 -1.25 -1.23 -1.24 -1.28 -1.32 -1.36 -1.40 -1.43 -1.46 -1.50 -1.53 -1.56 -1.59 -1.63 -1.68 -1.72 -1.75 -1.80 -1.88 -1.97 -2.05 -2.14 -2.20 -2.26 -2.32 -2.39 -2.46 -2.44 -2.49 -2.54 -2.59 -2.65 -2.68 -2.66 -2.69 -2.71 -2.72 -2.69 -2.53 -2.53 -2.52 -2.52 -2.49 -2.43 -2.41 -2.40 -2.46 -2.54 -2.60 -2.67 -2.74 -2.79 -2.85 -2.86 -2.85 -2.85 -2.84 -2.84 -2.84 -2.88 -2.90 -2.92 -2.94 -2.96 -2.96 -3.00 -3.06 -3.09 -3.09 -3.15 -3.19 -3.14 -3.10 -3.05 -3.00 -2.89 -2.88 -2.87 -2.92 -2.95 -2.97 -3.00 -2.93 -2.97 -2.98 -3.01 -3.03 -3.09 -3.20 -3.24 -3.26 -3.22 -3.19 -3.18 -3.17 -3.17 -3.21 -3.29 -3.36 -3.45 -3.39 -3.40 -3.18 -3.12 -2.98 -2.83 -2.84 -3.09 -3.22 -3.30 -3.43 -3.56 -3.63 -3.68 -3.77 -3.81 -3.90 -3.99 -4.10 -4.20 -4.22 -4.26 -4.28 -4.27 -4.28 -4.34 -4.49 -4.51 -4.59 -4.63 -4.65 -4.62 -4.71 -4.81 -4.92 -4.81 -4.83 -4.97 -5.10 -5.10 -5.03 -5.02 -5.02 -4.99 -5.12 -5.18 -5.33 -5.17 -5.16 -5.23 -5.26 -5.36 -5.32 -5.31 -5.35 -5.50 -5.40 -5.48 -5.46 -5.54 -5.53 -5.52 -5.59 -5.56 -5.54 -5.59 -5.68 -5.68 -5.72 -5.69 -5.66 -5.79 -5.78 -5.78 -5.75 -5.89 -5.82 -5.87 -5.78 -5.86 -5.83 -5.86 -5.94 -5.99 -5.94 -5.95 -6.02 -6.08 -6.14 -6.24 -6.09 -6.17 -6.29 -6.48 -6.39 -6.49 -6.51 -6.49 -6.47 -6.55 -6.53 -6.55 -6.56 -6.60 -6.50 -6.60 -6.65 -6.63 -6.73 -6.78 -6.81 -6.65 -6.78 -6.83 -6.80 -6.79 -6.86 -6.89 -6.85 -7.04 -7.05 -7.09 -7.11 -7.12 -7.12 -7.14 -7.20 -7.25 -7.21 -7.21 -7.21 -7.26 -7.35 -7.37 -7.29 -7.28 -7.35 -7.45 -7.42 -7.45 -7.54 -7.42 -7.49 -7.45 -7.49 -7.50 -7.52 -7.56 -7.66 -7.62 -7.70 -7.64 -7.65 -7.68 -7.71 -7.71 -7.75 -7.76 -7.82 -7.82 -7.87 -7.87 -7.86 -7.87 -7.90 -7.92 -7.95 -7.99 -7.99 -8.03 -8.03 -8.06
2.53 2.53 2.55 2.58 2.62 2.59 2.58 2.50 2.53 2.53 2.54 2.58 2.58 2.58 2.59 2.60 2.58 2.58 2.58 2.64 2.63 2.63 2.61 2.61 2.68 2.70 2.71 2.77 2.74 2.59 2.39 2.32 2.29 2.12 2.00 1.89 1.75 1.61 1.51 1.32 1.12 0.90 0.72 0.41 0.38 0.37 0.38 0.41 0.47 0.42 0.37 0.34 0.32 0.29 0.24 0.26 0.24 0.22 0.16 0.11 0.05 0.01 -0.02 -0.05 -0.09 -0.12 -0.11 -0.14 -0.17 -0.19 -0.21 -0.22 -0.22 -0.24 -0.26 -0.28 -0.34 -0.35 -0.38 -0.42 -0.47 -0.47 -0.49 -0.51 -0.53 -0.56 -0.57 -0.61 -0.65 -0.68 -0.71 -0.74 -0.76 -0.79 -0.83 -0.87 -0.89 -0.91 -0.92 -0.94 -0.95 -0.98 -1.01 -1.02 -1.02 -1.03 -1.03 -1.04 -1.07 -1.10 -1.12 -1.15 -1.17 -1.20 -1.22 -1.25 -1.28 -1.30 -1.32 -1.34 -1.36 -1.38 -1.43 -1.50 -1.55 -1.61 -1.67 -1.74 -1.81 -1.87 -1.94 -2.01 -2.08 -2.15 -2.21 -2.28 -2.35 -2.38 -2.42 -2.44 -2.44 -2.47 -2.51 -2.44 -2.39 -2.33 -2.25 -2.29 -2.32 -2.30 -2.24 -2.18 -2.22 -2.23 -2.25 -2.27 -2.32 -2.39 -2.41 -2.44 -2.47 -2.49 -2.52 -2.54 -2.56 -2.59 -2.61 -2.64 -2.66 -2.68 -2.71 -2.72 -2.72 -2.76 -2.84 -2.92 -2.89 -2.91 -2.88 -2.77 -2.76 -2.77 -2.75 -2.74 -2.76 -2.76 -2.79 -2.80 -2.80 -2.75 -2.85 -2.88 -2.88 -2.87 -2.88 -2.90 -2.98 -3.02 -3.02 -3.09 -3.12 -3.14 -3.16 -3.17 -3.13 -3.12 -3.05 -2.99 -2.95 -2.75 -2.65 -2.76 -2.86 -3.00 -3.23 -3.29 -3.37 -3.43 -3.60 -3.67 -3.71 -3.78 -3.88 -3.92 -4.00 -4.10 -4.18 -4.24 -4.26 -4.29 -4.30 -4.27 -4.30 -4.41 -4.54 -4.58 -4.64 -4.59 -4.56 -4.70 -4.78 -4.81 -4.73 -4.73 -4.94 -5.06 -5.12 -5.01 -4.94 -4.98 -4.91 -5.04 -5.16 -5.31 -5.20 -5.11 -5.10 -5.28 -5.28 -5.25 -5.31 -5.36 -5.41 -5.38 -5.45 -5.45 -5.48 -5.47 -5.53 -5.52 -5.46 -5.53 -5.61 -5.62 -5.59 -5.68 -5.62 -5.74 -5.70 -5.80 -5.72 -5.72 -5.85 -5.79 -5.73 -5.78 -5.86 -5.88 -5.86 -5.93 -5.96 -5.91 -6.00 -5.99 -6.02 -6.24 -6.31 -6.08 -6.17 -6.26 -6.42 -6.39 -6.52 -6.46 -6.48 -6.48 -6.52 -6.55 -6.60 -6.56 -6.63 -6.53 -6.62 -6.72 -6.62 -6.71 -6.84 -6.78 -6.66 -6.77 -6.83 -6.90 -6.91 -6.85 -6.88 -6.91 -7.09 -7.05 -7.13 -7.16 -7.20 -7.17 -7.21 -7.26 -7.26 -7.18 -7.20 -7.21 -7.29 -7.40 -7.32 -7.30 -7.38 -7.42 -7.43 -7.45 -7.54 -7.46 -7.53 -7.40 -7.53 -7.57 -7.51 -7.50 -7.61 -7.66 -7.61 -7.67 -7.64 -7.67 -7.69 -7.72 -7.75 -7.76 -7.81 -7.84 -7.87 -7.86 -7.88 -7.86 -7.91 -7.94 -7.96 -8.02 -8.01 -8.06 -8.09
2.41 2.45 2.44 2.45 2.47 2.43 2.38 2.42 2.44 2.42 2.40 2.41 2.44 2.41 2.47 2.42 2.45 2.47 2.46 2.46 2.48 2.46 2.49 2.49 2.57 2.53 2.53 2.58 2.68 2.68 2.65 2.70 2.76 2.66 2.52 2.35 2.20 2.09 2.00 1.85 1.64 1.45 1.27 0.97 0.64 0.41 0.44 0.45 0.47 0.45 0.46 0.42 0.44 0.37 0.46 0.26 0.31 0.31 0.24 0.20 0.14 0.11 0.07 0.02 -0.02 -0.05 -0.04 -0.06 -0.07 -0.08 -0.06 -0.14 -0.17 -0.20 -0.19 -0.22 -0.24 -0.26 -0.30 -0.32 -0.34 -0.35 -0.36 -0.37 -0.40 -0.44 -0.47 -0.48 -0.50 -0.52 -0.55 -0.58 -0.58 -0.62 -0.64 -0.67 -0.72 -0.74 -0.76 -0.77 -0.80 -0.82 -0.83 -0.86 -0.87 -0.87 -0.88 -0.88 -0.90 -0.91 -0.93 -0.94 -0.95 -0.96 -0.97 -0.98 -0.99 -0.99 -1.02 -1.07 -1.10 -1.12 -1.15 -1.20 -1.24 -1.28 -1.32 -1.37 -1.41 -1.47 -1.51 -1.57 -1.64 -1.74 -1.84 -1.94 -2.05 -2.13 -2.17 -2.19 -2.17 -2.17 -2.17 -2.19 -2.21 -2.16 -2.12 -2.09 -2.05 -2.11 -2.12 -2.08 -2.04 -2.04 -2.04 -2.03 -2.05 -2.04 -2.05 -2.07 -2.10 -2.12 -2.14 -2.18 -2.20 -2.22 -2.27 -2.29 -2.33 -2.35 -2.35 -2.38 -2.41 -2.45 -2.51 -2.55 -2.66 -2.72 -2.69 -2.67 -2.69 -2.70 -2.65 -2.59 -2.56 -2.54 -2.55 -2.57 -2.59 -2.54 -2.54 -2.65 -2.69 -2.68 -2.72 -2.71 -2.71 -2.71 -2.75 -2.85 -2.96 -2.96 -3.00 -3.07 -2.97 -2.95 -2.91 -2.78 -2.66 -2.61 -2.67 -2.66 -2.81 -2.93 -3.03 -3.13 -3.36 -3.33 -3.46 -3.51 -3.63 -3.72 -3.75 -3.79 -3.83 -3.87 -3.97 -4.09 -4.17 -4.26 -4.23 -4.24 -4.23 -4.24 -4.25 -4.33 -4.48 -4.55 -4.51 -4.44 -4.48 -4.61 -4.73 -4.73 -4.69 -4.72 -4.88 -5.01 -5.11 -5.01 -4.92 -4.99 -4.97 -5.06 -5.15 -5.27 -5.26 -5.13 -5.12 -5.29 -5.21 -5.19 -5.31 -5.39 -5.38 -5.39 -5.46 -5.49 -5.42 -5.44 -5.53 -5.57 -5.48 -5.50 -5.64 -5.54 -5.54 -5.62 -5.59 -5.62 -5.71 -5.77 -5.63 -5.84 -5.75 -5.72 -5.69 -5.84 -5.87 -5.90 -5.86 -5.95 -5.98 -5.92 -5.99 -6.01 -5.99 -6.18 -6.19 -6.10 -6.18 -6.23 -6.40 -6.39 -6.43 -6.38 -6.46 -6.53 -6.47 -6.55 -6.60 -6.57 -6.63 -6.59 -6.65 -6.78 -6.67 -6.69 -6.85 -6.70 -6.67 -6.76 -6.84 -6.87 -6.88 -6.92 -6.91 -7.07 -7.07 -7.05 -7.17 -7.27 -7.28 -7.21 -7.23 -7.29 -7.23 -7.16 -7.18 -7.23 -7.33 -7.42 -7.32 -7.35 -7.45 -7.46 -7.45 -7.55 -7.53 -7.47 -7.49 -7.56 -7.59 -7.64 -7.54 -7.47 -7.66 -7.64 -7.62 -7.63 -7.64 -7.69 -7.71 -7.73 -7.76 -7.79 -7.83 -7.83 -7.87 -7.87 -7.86 -7.92 -7.95 -7.97 -8.04 -8.07 -8.07
2.28 2.33 2.31 2.30 2.24 2.26 2.23 2.24 2.26 2.27 2.22 2.21 2.20 2.24 2.25 2.22 2.27 2.26 2.22 2.20 2.24 2.27 2.32 2.29 2.37 2.36 2.38 2.45 2.46 2.47 2.53 2.60 2.59 2.61 2.58 2.53 2.59 2.46 2.33 2.21 2.08 1.89 1.73 1.45 1.18 0.88 0.50 0.40 0.45 0.48 0.47 0.51 0.49 0.46 0.49 0.35 0.35 0.36 0.35 0.28 0.23 0.17 0.12 0.07 0.03 0.04 0.05 0.01 0.02 0.04 -0.03 -0.05 -0.10 -0.10 -0.12 -0.14 -0.16 -0.17 -0.21 -0.21 -0.22 -0.24 -0.27 -0.25 -0.30 -0.31 -0.33 -0.35 -0.37 -0.40 -0.42 -0.43 -0.44 -0.47 -0.49 -0.55 -0.54 -0.59 -0.58 -0.61 -0.63 -0.65 -0.67 -0.71 -0.74 -0.71 -0.72 -0.73 -0.73 -0.73 -0.75 -0.77 -0.77 -0.78 -0.77 -0.77 -0.79 -0.80 -0.84 -0.88 -0.91 -0.95 -0.99 -1.02 -1.06 -1.10 -1.13 -1.16 -1.18 -1.20 -1.23 -1.25 -1.30 -1.36 -1.42 -1.48 -1.54 -1.63 -1.73 -1.84 -1.96 -1.99 -2.02 -2.03 -1.99 -1.93 -1.93 -1.93 -1.94 -1.87 -1.84 -1.88 -1.86 -1.79 -1.77 -1.75 -1.74 -1.75 -1.75 -1.77 -1.80 -1.81 -1.82 -1.84 -1.85 -1.88 -1.89 -1.93 -1.98 -2.01 -2.04 -2.05 -2.07 -2.09 -2.15 -2.24 -2.34 -2.38 -2.48 -2.51 -2.50 -2.48 -2.50 -2.49 -2.52 -2.50 -2.46 -2.43 -2.40 -2.39 -2.39 -2.29 -2.41 -2.50 -2.49 -2.51 -2.55 -2.54 -2.54 -2.65 -2.71 -2.73 -2.88 -2.91 -2.98 -2.95 -2.78 -2.71 -2.61 -2.43 -2.46 -2.62 -2.73 -2.83 -2.98 -3.09 -3.14 -3.27 -3.42 -3.44 -3.54 -3.59 -3.65 -3.72 -3.71 -3.75 -3.76 -3.83 -3.94 -4.04 -4.10 -4.15 -4.19 -4.18 -4.21 -4.23 -4.18 -4.27 -4.41 -4.45 -4.32 -4.31 -4.46 -4.59 -4.67 -4.65 -4.61 -4.72 -4.89 -4.94 -5.02 -4.89 -4.84 -4.96 -5.08 -5.11 -5.09 -5.20 -5.18 -5.11 -5.16 -5.32 -5.14 -5.17 -5.29 -5.36 -5.49 -5.43 -5.49 -5.51 -5.43 -5.47 -5.51 -5.61 -5.49 -5.47 -5.63 -5.53 -5.50 -5.49 -5.48 -5.69 -5.79 -5.65 -5.72 -5.75 -5.68 -5.62 -5.69 -5.84 -5.85 -5.83 -5.88 -5.96 -6.00 -5.92 -5.95 -5.96 -5.96 -6.10 -6.06 -6.12 -6.14 -6.20 -6.33 -6.34 -6.31 -6.29 -6.49 -6.58 -6.55 -6.55 -6.60 -6.57 -6.60 -6.66 -6.71 -6.78 -6.68 -6.71 -6.78 -6.67 -6.69 -6.79 -6.91 -6.92 -6.97 -6.94 -7.03 -7.10 -7.06 -7.05 -7.20 -7.31 -7.22 -7.18 -7.25 -7.30 -7.17 -7.18 -7.23 -7.31 -7.38 -7.40 -7.36 -7.47 -7.49 -7.48 -7.48 -7.54 -7.43 -7.57 -7.53 -7.59 -7.65 -7.60 -7.53 -7.56 -7.60 -7.60 -7.61 -7.62 -7.66 -7.71 -7.72 -7.75 -7.78 -7.83 -7.83 -7.88 -7.88 -7.87 -7.92 -7.96 -7.98 -8.07 -8.10
2.19 2.16 2.15 2.09 2.04 2.08 2.10 2.10 2.10 2.01 2.05 2.05 2.04 2.05 1.95 2.02 2.06 2.06 2.08 2.04 2.00 2.06 2.04 2.08 2.15 2.19 2.18 2.23 2.23 2.33 2.39 2.41 2.47 2.46 2.46 2.42 2.52 2.57 2.60 2.52 2.38 2.23 2.08 1.93 1.71 1.43 1.06 0.70 0.38 0.49 0.54 0.53 0.51 0.54 0.45 0.57 0.34 0.33 0.43 0.37 0.29 0.21 0.17 0.13 0.13 0.14 0.12 0.11 0.10 0.14 0.06 0.04 0.03 -0.02 -0.06 -0.08 -0.10 -0.12 -0.09 -0.11 -0.12 -0.15 -0.19 -0.17 -0.19 -0.22 -0.23 -0.26 -0.27 -0.29 -0.30 -0.31 -0.32 -0.35 -0.40 -0.40 -0.41 -0.44 -0.47 -0.48 -0.47 -0.49 -0.52 -0.55 -0.58 -0.58 -0.56 -0.55 -0.57 -0.58 -0.59 -0.60 -0.62 -0.62 -0.62 -0.63 -0.63 -0.64 -0.68 -0.70 -0.73 -0.76 -0.80 -0.84 -0.87 -0.89 -0.92 -0.96 -0.99 -1.03 -1.06 -1.09 -1.12 -1.13 -1.15 -1.18 -1.20 -1.27 -1.33 -1.41 -1.50 -1.60 -1.65 -1.69 -1.77 -1.85 -1.77 -1.76 -1.74 -1.72 -1.70 -1.66 -1.59 -1.55 -1.56 -1.51 -1.47 -1.46 -1.48 -1.50 -1.52 -1.51 -1.52 -1.52 -1.54 -1.56 -1.55 -1.56 -1.62 -1.66 -1.69 -1.74 -1.77 -1.80 -1.85 -1.88 -1.94 -2.03 -2.15 -2.23 -2.31 -2.33 -2.31 -2.32 -2.35 -2.34 -2.31 -2.35 -2.33 -2.32 -2.32 -2.27 -2.24 -2.25 -2.28 -2.28 -2.31 -2.36 -2.45 -2.45 -2.38 -2.57 -2.64 -2.72 -2.79 -2.87 -2.91 -2.77 -2.53 -2.50 -2.49 -2.49 -2.60 -2.75 -2.77 -3.00 -3.11 -3.19 -3.25 -3.39 -3.51 -3.53 -3.58 -3.57 -3.61 -3.68 -3.66 -3.67 -3.70 -3.80 -3.89 -3.95 -3.98 -4.02 -4.07 -4.14 -4.14 -4.15 -4.18 -4.23 -4.34 -4.29 -4.25 -4.30 -4.47 -4.54 -4.61 -4.64 -4.56 -4.72 -4.82 -4.80 -4.81 -4.74 -4.74 -4.90 -4.96 -5.02 -5.02 -5.12 -5.08 -5.10 -5.20 -5.26 -5.07 -5.18 -5.25 -5.27 -5.40 -5.42 -5.48 -5.51 -5.45 -5.49 -5.50 -5.62 -5.51 -5.59 -5.75 -5.56 -5.47 -5.37 -5.49 -5.70 -5.73 -5.65 -5.74 -5.66 -5.58 -5.59 -5.67 -5.82 -5.71 -5.77 -5.88 -5.94 -5.87 -5.88 -5.90 -5.92 -5.93 -6.01 -6.06 -6.13 -6.15 -6.15 -6.27 -6.30 -6.32 -6.35 -6.55 -6.57 -6.59 -6.58 -6.58 -6.58 -6.66 -6.62 -6.71 -6.77 -6.75 -6.75 -6.73 -6.69 -6.76 -6.87 -6.97 -6.97 -6.94 -7.05 -7.12 -7.13 -7.04 -7.15 -7.20 -7.24 -7.16 -7.15 -7.32 -7.27 -7.25 -7.27 -7.34 -7.39 -7.42 -7.40 -7.42 -7.54 -7.49 -7.41 -7.44 -7.36 -7.59 -7.59 -7.62 -7.63 -7.59 -7.55 -7.51 -7.59 -7.58 -7.57 -7.62 -7.66 -7.66 -7.72 -7.75 -7.78 -7.80 -7.85 -7.89 -7.89 -7.88 -7.92 -7.97 -7.98 -8.07
2.06 2.00 1.94 1.87 1.52 1.73 1.64 1.79 1.50 1.66 1.66 1.67 1.72 1.54 1.62 1.82 1.84 1.88 1.95 1.59 1.28 1.86 1.82 1.87 1.93 1.96 1.98 2.02 2.02 2.10 2.15 2.24 2.30 2.30 2.34 2.35 2.42 2.47 2.53 2.50 2.52 2.53 2.39 2.22 2.08 1.82 1.59 1.20 0.79 0.41 0.43 0.52 0.55 0.56 0.50 0.62 0.44 0.41 0.37 0.46 0.38 0.28 0.24 0.22 0.22 0.21 0.22 0.21 0.23 0.14 0.11 0.09 0.08 0.05 0.01 -0.02 -0.04 -0.07 -0.03 -0.05 -0.06 -0.09 -0.10 -0.13 -0.11 -0.12 -0.16 -0.19 -0.21 -0.24 -0.23 -0.21 -0.21 -0.27 -0.28 -0.31 -0.35 -0.34 -0.34 -0.36 -0.38 -0.39 -0.40 -0.40 -0.43 -0.44 -0.44 -0.40 -0.42 -0.44 -0.44 -0.45 -0.47 -0.47 -0.48 -0.48 -0.49 -0.50 -0.52 -0.54 -0.56 -0.59 -0.62 -0.66 -0.71 -0.74 -0.78 -0.82 -0.85 -0.87 -0.90 -0.94 -0.95 -0.96 -1.00 -1.01 -1.02 -1.07 -1.11 -1.15 -1.19 -1.24 -1.30 -1.34 -1.37 -1.40 -1.46 -1.45 -1.45 -1.45 -1.45 -1.47 -1.46 -1.40 -1.34 -1.28 -1.25 -1.25 -1.23 -1.24 -1.26 -1.27 -1.29 -1.30 -1.31 -1.32 -1.34 -1.36 -1.37 -1.39 -1.40 -1.41 -1.46 -1.50 -1.55 -1.56 -1.59 -1.65 -1.72 -1.81 -1.95 -2.06 -2.12 -2.17 -2.13 -2.11 -2.13 -2.09 -2.07 -2.13 -2.16 -2.16 -2.12 -2.10 -2.08 -2.11 -2.10 -2.11 -2.22 -2.31 -2.39 -2.32 -2.25 -2.31 -2.46 -2.63 -2.68 -2.82 -2.81 -2.58 -2.45 -2.48 -2.53 -2.60 -2.72 -2.78 -2.94 -3.00 -3.24 -3.23 -3.35 -3.45 -3.53 -3.48 -3.51 -3.52 -3.57 -3.62 -3.61 -3.62 -3.69 -3.80 -3.83 -3.87 -3.89 -3.93 -3.96 -4.04 -4.08 -4.08 -4.18 -4.17 -4.26 -4.20 -4.24 -4.31 -4.43 -4.44 -4.55 -4.55 -4.53 -4.66 -4.71 -4.67 -4.60 -4.63 -4.72 -4.84 -4.90 -4.94 -4.95 -5.00 -4.99 -5.05 -5.15 -5.09 -5.06 -5.24 -5.20 -5.20 -5.29 -5.40 -5.39 -5.42 -5.43 -5.44 -5.49 -5.41 -5.40 -5.64 -5.70 -5.44 -5.35 -5.33 -5.50 -5.73 -5.65 -5.68 -5.66 -5.53 -5.56 -5.56 -5.63 -5.81 -5.62 -5.71 -5.79 -5.89 -5.79 -5.84 -5.84 -5.87 -5.94 -6.05 -6.12 -6.19 -6.13 -6.12 -6.21 -6.30 -6.47 -6.46 -6.63 -6.63 -6.62 -6.61 -6.56 -6.66 -6.68 -6.65 -6.72 -6.77 -6.77 -6.76 -6.75 -6.74 -6.83 -6.95 -7.01 -7.03 -7.00 -7.09 -7.08 -7.05 -7.08 -7.11 -7.22 -7.19 -7.20 -7.19 -7.32 -7.28 -7.35 -7.33 -7.44 -7.48 -7.46 -7.43 -7.47 -7.50 -7.52 -7.38 -7.38 -7.56 -7.62 -7.60 -7.60 -7.59 -7.56 -7.53 -7.54 -7.54 -7.59 -7.61 -7.66 -7.70 -7.69 -7.74 -7.78 -7.84 -7.86 -7.87 -7.93 -7.89 -7.92 -7.98 -7.98
1.86 1.90 1.23 1.15 1.12 1.08 1.07 1.02 1.00 1.13 1.15 1.10 1.10 1.04 1.00 1.19 1.22 1.38 1.28 1.02 0.86 0.87 1.43 1.76 1.11 0.97 1.61 1.71 1.67 1.89 1.95 2.03 2.10 2.21 2.20 2.22 2.27 2.32 2.35 2.41 2.41 2.45 2.45 2.47 2.37 2.14 1.90 1.70 1.37 1.04 0.57 0.47 0.49 0.54 0.55 0.66 0.57 0.41 0.38 0.37 0.29 0.31 0.37 0.31 0.30 0.28 0.29 0.34 0.24 0.19 0.17 0.14 0.15 0.12 0.07 0.05 0.00 0.03 0.04 0.05 0.01 -0.00 -0.04 -0.06 -0.03 -0.03 -0.11 -0.09 -0.12 -0.14 -0.15 -0.14 -0.18 -0.19 -0.23 -0.23 -0.25 -0.25 -0.27 -0.30 -0.29 -0.27 -0.29 -0.31 -0.32 -0.34 -0.33 -0.33 -0.34 -0.34 -0.34 -0.34 -0.35 -0.35 -0.37 -0.38 -0.39 -0.39 -0.38 -0.38 -0.40 -0.43 -0.45 -0.49 -0.52 -0.56 -0.60 -0.63 -0.66 -0.70 -0.74 -0.77 -0.80 -0.81 -0.83 -0.84 -0.86 -0.91 -0.95 -0.98 -1.01 -1.06 -1.11 -1.15 -1.20 -1.27 -1.24 -1.27 -1.26 -1.25 -1.23 -1.21 -1.24 -1.21 -1.17 -1.12 -1.08 -1.06 -1.06 -1.06 -1.07 -1.07 -1.08 -1.09 -1.10 -1.11 -1.12 -1.13 -1.14 -1.16 -1.18 -1.20 -1.23 -1.25 -1.29 -1.31 -1.35 -1.36 -1.35 -1.46 -1.55 -1.70 -1.85 -1.90 -1.98 -2.04 -1.97 -1.93 -1.89 -1.87 -1.86 -1.89 -1.95 -1.92 -1.88 -1.88 -1.92 -1.99 -2.02 -2.05 -2.16 -2.21 -2.28 -2.23 -2.21 -2.19 -2.26 -2.35 -2.59 -2.63 -2.57 -2.43 -2.42 -2.48 -2.62 -2.76 -2.82 -2.89 -3.02 -3.10 -3.28 -3.33 -3.40 -3.45 -3.47 -3.42 -3.43 -3.47 -3.51 -3.52 -3.54 -3.61 -3.67 -3.75 -3.78 -3.79 -3.80 -3.82 -3.87 -3.92 -4.00 -3.99 -4.06 -4.09 -4.18 -4.15 -4.22 -4.32 -4.35 -4.36 -4.43 -4.44 -4.51 -4.60 -4.58 -4.53 -4.54 -4.60 -4.76 -4.78 -4.86 -4.86 -4.89 -4.98 -4.97 -4.96 -5.02 -4.98 -5.13 -5.15 -5.14 -5.13 -5.22 -5.20 -5.33 -5.29 -5.23 -5.22 -5.25 -5.35 -5.43 -5.55 -5.53 -5.32 -5.22 -5.27 -5.68 -5.67 -5.58 -5.53 -5.47 -5.47 -5.51 -5.54 -5.57 -5.71 -5.60 -5.64 -5.70 -5.77 -5.73 -5.80 -5.83 -5.88 -5.98 -6.11 -6.12 -6.20 -6.10 -6.23 -6.26 -6.32 -6.45 -6.59 -6.68 -6.63 -6.57 -6.57 -6.48 -6.74 -6.63 -6.68 -6.76 -6.76 -6.76 -6.77 -6.75 -6.78 -6.90 -7.03 -7.07 -6.95 -7.06 -7.04 -7.07 -7.04 -7.04 -7.12 -7.20 -7.21 -7.20 -7.29 -7.32 -7.38 -7.46 -7.39 -7.50 -7.47 -7.45 -7.44 -7.50 -7.53 -7.40 -7.41 -7.53 -7.61 -7.60 -7.60 -7.60 -7.53 -7.53 -7.56 -7.57 -7.61 -7.64 -7.66 -7.72 -7.74 -7.75 -7.78 -7.83 -7.85 -7.87 -7.94 -7.91 -7.92 -7.99
