ncols	374
nrows	32
xllcorner	295710
yllcorner	131590
cellsize	5.00
NODATA_value	-9999.00
-9999.00 -9999.00 -9999.00 -9999.00 -9999.00 -9999.00 -9999.00 -9999.00 -9999.00 -9999.00 -9999.00 -9999.00 -9999.00 -9999.00 -9999.00 -9999.00 -9999.00 -9999.00 -9999.00 -9999.00 -9999.00 -9999.00 -9999.00 -9999.00 -9999.00 -9999.00 -9999.00 -9999.00 -9999.00 -9999.00 -9999.00 -9999.00 -9999.00 -9999.00 -9999.00 -9999.00 -9999.00 -9999.00 -9999.00 -9999.00 -9999.00 -9999.00 -9999.00 -9999.00 -9999.00 -9999.00 -9999.00 -9999.00 -9999.00 -9999.00 -9999.00 -9999.00 -9999.00 -9999.00 -9999.00 -9999.00 -9999.00 -9999.00 -9999.00 -9999.00 -9999.00 -9999.00 -9999.00 -9999.00 -9999.00 -9999.00 -9999.00 -9999.00 -9999.00 -9999.00 -9999.00 -9999.00 -9999.00 -9999.00 -9999.00 -9999.00 -9999.00 -9999.00 -9999.00 -9999.00 -9999.00 -9999.00 -9999.00 -9999.00 -9999.00 -9999.00 -9999.00 -9999.00 -9999.00 -9999.00 -9999.00 -9999.00 -9999.00 -9999.00 -9999.00 -9999.00 -9999.00 -9999.00 -9999.00 -9999.00 -9999.00 -9999.00 -9999.00 -9999.00 -9999.00 -9999.00 -9999.00 -9999.00 -9999.00 -9999.00 -9999.00 -9999.00 -9999.00 -9999.00 -9999.00 -9999.00 -9999.00 -9999.00 -9999.00 -9999.00 -9999.00 -9999.00 -9999.00 -9999.00 -9999.00 -9999.00 -9999.00 -9999.00 -9999.00 -14.49 -14.38 -14.30 -14.21 -14.11 -13.99 -13.87 -13.74 -13.63 -13.58 -13.48 -13.45 -13.41 -13.38 -13.30 -13.29 -13.25 -13.18 -13.12 -13.05 -13.03 -12.99 -12.96 -12.94 -12.91 -12.95 -12.91 -12.89 -12.86 -12.84 -12.82 -12.80 -12.78 -12.77 -12.76 -12.75 -12.79 -12.79 -12.82 -12.80 -12.77 -12.71 -12.63 -12.58 -12.56 -12.52 -12.49 -12.47 -12.49 -12.42 -12.41 -12.39 -12.39 -12.42 -12.44 -12.41 -12.39 -12.38 -12.44 -12.43 -12.44 -12.46 -12.44 -12.33 -12.20 -12.03 -11.90 -11.74 -11.60 -11.44 -11.42 -11.47 -11.52 -11.50 -11.44 -11.36 -11.22 -11.13 -11.05 -10.98 -10.94 -10.90 -10.89 -10.89 -10.85 -10.83 -10.83 -10.82 -10.79 -10.72 -10.70 -10.69 -10.64 -10.60 -10.59 -10.53 -10.51 -10.48 -10.47 -10.42 -10.42 -10.38 -10.39 -10.40 -10.31 -10.25 -10.16 -10.08 -10.00 -9.94 -9.85 -9.82 -9.74 -9.67 -9.57 -9.51 -9.44 -9.39 -9.39 -9.37 -9.39 -9.37 -9.37 -9.35 -9.27 -9.21 -9.15 -9.11 -9.03 -8.95 -8.86 -8.79 -8.71 -8.63 -8.55 -8.49 -8.44 -8.42 -8.41 -8.43 -8.45 -8.50 -8.51 -8.52 -8.48 -8.38 -8.25 -8.19 -8.11 -8.05 -7.99 -7.97 -7.91 -7.87 -7.85 -7.85 -7.83 -7.87 -7.90 -7.89 -7.85 -7.82 -7.79 -7.74 -7.67 -7.67 -7.67 -7.63 -7.59 -7.55 -7.53 -7.51 -7.49 -7.48 -7.46 -7.44 -7.44 -7.44 -7.38 -7.40 -7.42 -7.44 -7.36 -7.16 -6.97 -6.79 -6.65 -6.55 -6.49 -6.64 -6.71 -6.77 -6.84 -6.91 -6.92 -6.93 -6.94 -6.95 -6.95 -6.96 -6.98 -6.99 -7.00 -7.00 -7.00 -6.99 -7.00 -7.01 -7.03 -7.04 -7.04 -6.98 -6.92 -6.86 -6.79 -6.73 -6.74 -6.63 -6.48 -6.34 -6.19 -6.04 -5.89 -5.74 -5.74 -5.83 -5.92 -6.01 -6.09 -6.19 -6.23 -6.27 -6.32 -6.36 -6.41 -6.48 -6.52 -6.51 -6.51 -6.52 -6.52 -6.51 -6.51 -6.51 -6.52
-9999.00 -9999.00 -9999.00 -9999.00 -9999.00 -9999.00 -9999.00 -9999.00 -9999.00 -9999.00 -9999.00 -9999.00 -9999.00 -9999.00 -9999.00 -9999.00 -9999.00 -9999.00 -9999.00 -9999.00 -9999.00 -9999.00 -9999.00 -9999.00 -9999.00 -9999.00 -9999.00 -9999.00 -9999.00 -9999.00 -9999.00 -9999.00 -9999.00 -9999.00 -9999.00 -9999.00 -9999.00 -9999.00 -9999.00 -9999.00 -9999.00 -9999.00 -9999.00 -9999.00 -9999.00 -9999.00 -9999.00 -9999.00 -9999.00 -9999.00 -9999.00 -9999.00 -9999.00 -9999.00 -9999.00 -9999.00 -9999.00 -9999.00 -9999.00 -9999.00 -9999.00 -9999.00 -9999.00 -9999.00 -9999.00 -9999.00 -9999.00 -9999.00 -9999.00 -9999.00 -9999.00 -9999.00 -9999.00 -9999.00 -9999.00 -9999.00 -9999.00 -9999.00 -9999.00 -9999.00 -9999.00 -9999.00 -9999.00 -9999.00 -9999.00 -9999.00 -9999.00 -9999.00 -9999.00 -9999.00 -9999.00 -9999.00 -9999.00 -9999.00 -9999.00 -9999.00 -9999.00 -9999.00 -9999.00 -9999.00 -9999.00 -9999.00 -9999.00 -9999.00 -9999.00 -9999.00 -9999.00 -9999.00 -9999.00 -9999.00 -9999.00 -9999.00 -9999.00 -9999.00 -9999.00 -9999.00 -9999.00 -9999.00 -9999.00 -9999.00 -9999.00 -9999.00 -9999.00 -9999.00 -9999.00 -9999.00 -9999.00 -9999.00 -14.41 -14.32 -14.23 -14.13 -14.04 -13.92 -13.83 -13.71 -13.60 -13.55 -13.46 -13.40 -13.36 -13.32 -13.22 -13.22 -13.20 -13.13 -13.05 -13.02 -12.98 -12.95 -12.93 -12.90 -12.87 -12.84 -12.83 -12.79 -12.77 -12.75 -12.73 -12.71 -12.68 -12.68 -12.68 -12.69 -12.72 -12.73 -12.77 -12.75 -12.72 -12.67 -12.60 -12.56 -12.50 -12.45 -12.41 -12.39 -12.42 -12.34 -12.32 -12.32 -12.35 -12.33 -12.32 -12.25 -12.27 -12.30 -12.32 -12.34 -12.34 -12.35 -12.41 -12.35 -12.21 -12.08 -11.89 -11.74 -11.58 -11.50 -11.42 -11.41 -11.48 -11.44 -11.38 -11.27 -11.16 -11.09 -11.00 -10.93 -10.86 -10.80 -10.78 -10.78 -10.76 -10.72 -10.75 -10.77 -10.68 -10.63 -10.61 -10.58 -10.54 -10.54 -10.51 -10.48 -10.43 -10.41 -10.36 -10.33 -10.31 -10.31 -10.31 -10.29 -10.26 -10.22 -10.11 -10.02 -9.94 -9.87 -9.81 -9.73 -9.68 -9.60 -9.54 -9.46 -9.37 -9.30 -9.23 -9.23 -9.25 -9.22 -9.22 -9.23 -9.18 -9.16 -9.11 -9.02 -9.00 -8.89 -8.84 -8.80 -8.71 -8.61 -8.56 -8.47 -8.41 -8.36 -8.36 -8.36 -8.39 -8.40 -8.41 -8.42 -8.40 -8.39 -8.29 -8.23 -8.15 -8.10 -8.02 -7.96 -7.87 -7.85 -7.83 -7.84 -7.81 -7.80 -7.74 -7.71 -7.70 -7.68 -7.64 -7.61 -7.61 -7.62 -7.60 -7.58 -7.54 -7.53 -7.52 -7.53 -7.52 -7.49 -7.44 -7.37 -7.31 -7.29 -7.27 -7.27 -7.24 -7.23 -7.22 -7.20 -7.08 -6.93 -6.79 -6.64 -6.49 -6.38 -6.47 -6.55 -6.65 -6.75 -6.85 -6.86 -6.85 -6.83 -6.81 -6.79 -6.79 -6.80 -6.82 -6.83 -6.84 -6.86 -6.87 -6.89 -6.93 -6.95 -6.98 -7.00 -6.93 -6.84 -6.77 -6.67 -6.60 -6.59 -6.53 -6.38 -6.23 -6.12 -6.03 -5.98 -5.92 -5.92 -5.91 -5.92 -5.91 -5.90 -5.96 -6.00 -6.07 -6.10 -6.19 -6.25 -6.33 -6.40 -6.41 -6.42 -6.42 -6.42 -6.44 -6.46 -6.48 -6.49
-9999.00 -9999.00 -9999.00 -9999.00 -9999.00 -9999.00 -9999.00 -9999.00 -9999.00 -9999.00 -9999.00 -9999.00 -9999.00 -9999.00 -9999.00 -9999.00 -9999.00 -9999.00 -9999.00 -9999.00 -9999.00 -9999.00 -9999.00 -9999.00 -9999.00 -9999.00 -9999.00 -9999.00 -9999.00 -9999.00 -9999.00 -9999.00 -9999.00 -9999.00 -9999.00 -9999.00 -9999.00 -9999.00 -9999.00 -9999.00 -9999.00 -9999.00 -9999.00 -9999.00 -9999.00 -9999.00 -9999.00 -9999.00 -9999.00 -9999.00 -9999.00 -9999.00 -9999.00 -9999.00 -9999.00 -9999.00 -9999.00 -9999.00 -9999.00 -9999.00 -9999.00 -9999.00 -9999.00 -9999.00 -9999.00 -9999.00 -9999.00 -9999.00 -9999.00 -9999.00 -9999.00 -9999.00 -9999.00 -9999.00 -9999.00 -9999.00 -9999.00 -9999.00 -9999.00 -9999.00 -9999.00 -9999.00 -9999.00 -9999.00 -9999.00 -9999.00 -9999.00 -9999.00 -9999.00 -9999.00 -9999.00 -9999.00 -9999.00 -9999.00 -9999.00 -9999.00 -9999.00 -9999.00 -9999.00 -9999.00 -9999.00 -9999.00 -9999.00 -9999.00 -9999.00 -9999.00 -9999.00 -9999.00 -9999.00 -9999.00 -9999.00 -9999.00 -9999.00 -9999.00 -9999.00 -9999.00 -9999.00 -9999.00 -9999.00 -9999.00 -9999.00 -9999.00 -9999.00 -9999.00 -9999.00 -9999.00 -14.43 -14.34 -14.27 -14.16 -14.07 -13.96 -13.86 -13.75 -13.64 -13.55 -13.52 -13.44 -13.36 -13.31 -13.25 -13.18 -13.16 -13.14 -13.08 -13.02 -12.97 -12.94 -12.92 -12.89 -12.87 -12.81 -12.78 -12.75 -12.73 -12.70 -12.66 -12.64 -12.62 -12.61 -12.60 -12.60 -12.63 -12.64 -12.67 -12.70 -12.70 -12.67 -12.62 -12.56 -12.54 -12.48 -12.43 -12.37 -12.31 -12.32 -12.27 -12.27 -12.24 -12.27 -12.24 -12.21 -12.15 -12.17 -12.22 -12.22 -12.21 -12.24 -12.29 -12.28 -12.25 -12.19 -12.05 -11.89 -11.71 -11.59 -11.51 -11.41 -11.43 -11.43 -11.35 -11.29 -11.19 -11.11 -11.03 -10.96 -10.88 -10.82 -10.75 -10.70 -10.67 -10.66 -10.64 -10.65 -10.62 -10.56 -10.56 -10.53 -10.49 -10.49 -10.47 -10.43 -10.37 -10.35 -10.29 -10.24 -10.26 -10.21 -10.23 -10.20 -10.16 -10.13 -10.10 -10.03 -9.95 -9.88 -9.81 -9.71 -9.64 -9.61 -9.56 -9.48 -9.39 -9.31 -9.24 -9.19 -9.11 -9.09 -9.11 -9.14 -9.09 -9.09 -9.06 -9.01 -9.00 -8.96 -8.86 -8.86 -8.78 -8.69 -8.63 -8.54 -8.47 -8.40 -8.34 -8.25 -8.29 -8.30 -8.32 -8.31 -8.32 -8.32 -8.29 -8.28 -8.24 -8.15 -8.09 -8.02 -7.97 -7.91 -7.85 -7.80 -7.79 -7.74 -7.70 -7.65 -7.62 -7.62 -7.58 -7.58 -7.58 -7.58 -7.59 -7.60 -7.58 -7.54 -7.51 -7.51 -7.51 -7.52 -7.45 -7.38 -7.31 -7.25 -7.18 -7.16 -7.15 -7.14 -7.10 -7.07 -7.04 -7.01 -6.87 -6.73 -6.59 -6.46 -6.32 -6.23 -6.31 -6.42 -6.51 -6.62 -6.67 -6.69 -6.67 -6.67 -6.67 -6.65 -6.65 -6.66 -6.68 -6.71 -6.73 -6.76 -6.78 -6.80 -6.81 -6.83 -6.84 -6.85 -6.80 -6.71 -6.64 -6.60 -6.57 -6.54 -6.48 -6.37 -6.29 -6.23 -6.14 -6.07 -6.00 -6.02 -6.03 -5.98 -5.93 -5.88 -5.83 -5.89 -5.95 -6.01 -6.08 -6.14 -6.18 -6.22 -6.24 -6.26 -6.27 -6.28 -6.29 -6.31 -6.33 -6.35
-9999.00 -9999.00 -9999.00 -9999.00 -9999.00 -9999.00 -9999.00 -9999.00 -9999.00 -9999.00 -9999.00 -9999.00 -9999.00 -9999.00 -9999.00 -9999.00 -9999.00 -9999.00 -9999.00 -9999.00 -9999.00 -9999.00 -9999.00 -9999.00 -9999.00 -9999.00 -9999.00 -9999.00 -9999.00 -9999.00 -9999.00 -9999.00 -9999.00 -9999.00 -9999.00 -9999.00 -9999.00 -9999.00 -9999.00 -9999.00 -9999.00 -9999.00 -9999.00 -9999.00 -9999.00 -9999.00 -9999.00 -9999.00 -9999.00 -9999.00 -9999.00 -9999.00 -9999.00 -9999.00 -9999.00 -9999.00 -9999.00 -9999.00 -9999.00 -9999.00 -9999.00 -9999.00 -9999.00 -9999.00 -9999.00 -9999.00 -9999.00 -9999.00 -9999.00 -9999.00 -9999.00 -9999.00 -9999.00 -9999.00 -9999.00 -9999.00 -9999.00 -9999.00 -9999.00 -9999.00 -9999.00 -9999.00 -9999.00 -9999.00 -9999.00 -9999.00 -9999.00 -9999.00 -9999.00 -9999.00 -9999.00 -9999.00 -9999.00 -9999.00 -9999.00 -9999.00 -9999.00 -9999.00 -9999.00 -9999.00 -9999.00 -9999.00 -9999.00 -9999.00 -9999.00 -9999.00 -9999.00 -9999.00 -9999.00 -9999.00 -9999.00 -9999.00 -9999.00 -9999.00 -9999.00 -9999.00 -9999.00 -9999.00 -9999.00 -9999.00 -9999.00 -9999.00 -9999.00 -9999.00 -14.46 -14.35 -14.28 -14.18 -14.08 -13.99 -13.88 -13.79 -13.70 -13.58 -13.49 -13.45 -13.39 -13.32 -13.27 -13.19 -13.13 -13.08 -13.06 -12.99 -12.97 -12.94 -12.93 -12.89 -12.83 -12.77 -12.73 -12.71 -12.71 -12.70 -12.62 -12.63 -12.54 -12.52 -12.53 -12.52 -12.52 -12.56 -12.56 -12.61 -12.64 -12.66 -12.63 -12.57 -12.54 -12.51 -12.46 -12.41 -12.36 -12.29 -12.24 -12.21 -12.19 -12.17 -12.18 -12.15 -12.12 -12.06 -12.11 -12.08 -12.09 -12.13 -12.15 -12.17 -12.16 -12.13 -12.05 -11.98 -11.84 -11.70 -11.61 -11.50 -11.42 -11.43 -11.39 -11.30 -11.22 -11.14 -11.07 -10.98 -10.91 -10.84 -10.77 -10.70 -10.65 -10.61 -10.56 -10.56 -10.56 -10.52 -10.47 -10.48 -10.47 -10.45 -10.44 -10.37 -10.32 -10.28 -10.24 -10.17 -10.18 -10.12 -10.14 -10.11 -10.06 -10.03 -10.00 -9.95 -9.90 -9.89 -9.80 -9.69 -9.63 -9.60 -9.55 -9.48 -9.41 -9.33 -9.26 -9.19 -9.13 -9.08 -9.07 -8.99 -8.99 -8.99 -8.99 -8.97 -8.96 -8.97 -8.88 -8.91 -8.83 -8.75 -8.67 -8.60 -8.52 -8.44 -8.39 -8.31 -8.31 -8.24 -8.22 -8.22 -8.22 -8.24 -8.21 -8.22 -8.20 -8.16 -8.13 -8.05 -7.99 -7.95 -7.89 -7.84 -7.78 -7.72 -7.71 -7.67 -7.63 -7.59 -7.54 -7.51 -7.50 -7.50 -7.52 -7.53 -7.55 -7.54 -7.50 -7.49 -7.48 -7.44 -7.40 -7.40 -7.35 -7.19 -7.17 -7.12 -7.06 -7.04 -7.02 -7.01 -7.00 -6.97 -6.91 -6.86 -6.74 -6.66 -6.61 -6.53 -6.45 -6.40 -6.40 -6.43 -6.47 -6.49 -6.51 -6.51 -6.50 -6.50 -6.52 -6.53 -6.54 -6.57 -6.58 -6.59 -6.60 -6.61 -6.61 -6.61 -6.63 -6.65 -6.67 -6.68 -6.64 -6.58 -6.54 -6.52 -6.51 -6.48 -6.45 -6.39 -6.34 -6.28 -6.22 -6.15 -6.11 -6.06 -6.01 -5.94 -5.88 -5.85 -5.77 -5.87 -5.88 -5.92 -5.95 -5.99 -6.02 -6.06 -6.06 -6.05 -6.06 -6.07 -6.08 -6.10 -6.18 -6.25
-9999.00 -9999.00 -9999.00 -9999.00 -9999.00 -9999.00 -9999.00 -9999.00 -9999.00 -9999.00 -9999.00 -9999.00 -9999.00 -9999.00 -9999.00 -9999.00 -9999.00 -9999.00 -9999.00 -9999.00 -9999.00 -9999.00 -9999.00 -9999.00 -9999.00 -9999.00 -9999.00 -9999.00 -9999.00 -9999.00 -9999.00 -9999.00 -9999.00 -9999.00 -9999.00 -9999.00 -9999.00 -9999.00 -9999.00 -9999.00 -9999.00 -9999.00 -9999.00 -9999.00 -9999.00 -9999.00 -9999.00 -9999.00 -9999.00 -9999.00 -9999.00 -9999.00 -9999.00 -9999.00 -9999.00 -9999.00 -9999.00 -9999.00 -9999.00 -9999.00 -9999.00 -9999.00 -9999.00 -9999.00 -9999.00 -9999.00 -9999.00 -9999.00 -9999.00 -9999.00 -9999.00 -9999.00 -9999.00 -9999.00 -9999.00 -9999.00 -9999.00 -9999.00 -9999.00 -9999.00 -9999.00 -9999.00 -9999.00 -9999.00 -9999.00 -9999.00 -9999.00 -9999.00 -9999.00 -9999.00 -9999.00 -9999.00 -9999.00 -9999.00 -9999.00 -9999.00 -9999.00 -9999.00 -9999.00 -9999.00 -9999.00 -9999.00 -9999.00 -9999.00 -9999.00 -9999.00 -9999.00 -9999.00 -9999.00 -9999.00 -9999.00 -9999.00 -9999.00 -9999.00 -9999.00 -9999.00 -9999.00 -9999.00 -9999.00 -9999.00 -9999.00 -9999.00 -9999.00 -14.33 -14.29 -14.19 -14.09 -14.01 -13.92 -13.81 -13.73 -13.65 -13.51 -13.42 -13.38 -13.32 -13.25 -13.21 -13.11 -13.06 -13.00 -12.97 -12.91 -12.90 -12.89 -12.85 -12.79 -12.74 -12.69 -12.67 -12.65 -12.61 -12.64 -12.61 -12.59 -12.51 -12.43 -12.44 -12.43 -12.43 -12.50 -12.49 -12.55 -12.58 -12.61 -12.59 -12.53 -12.51 -12.48 -12.44 -12.40 -12.35 -12.29 -12.24 -12.20 -12.15 -12.10 -12.08 -12.06 -12.04 -12.03 -12.01 -12.01 -12.01 -12.06 -12.07 -12.07 -12.04 -12.04 -11.95 -11.92 -11.81 -11.70 -11.61 -11.49 -11.38 -11.40 -11.32 -11.23 -11.17 -11.09 -11.00 -10.93 -10.86 -10.78 -10.73 -10.65 -10.58 -10.58 -10.52 -10.47 -10.43 -10.42 -10.39 -10.40 -10.38 -10.36 -10.27 -10.27 -10.23 -10.19 -10.12 -10.09 -10.08 -10.04 -10.02 -9.96 -9.92 -9.90 -9.87 -9.82 -9.79 -9.76 -9.70 -9.62 -9.59 -9.54 -9.47 -9.40 -9.34 -9.27 -9.22 -9.16 -9.09 -9.06 -9.00 -8.95 -8.92 -8.89 -8.91 -8.85 -8.90 -8.90 -8.91 -8.92 -8.80 -8.72 -8.62 -8.57 -8.50 -8.45 -8.38 -8.36 -8.30 -8.27 -8.22 -8.14 -8.14 -8.15 -8.14 -8.12 -8.08 -8.07 -8.04 -8.03 -7.98 -7.92 -7.89 -7.84 -7.79 -7.74 -7.70 -7.66 -7.61 -7.56 -7.51 -7.48 -7.43 -7.44 -7.46 -7.46 -7.47 -7.44 -7.46 -7.43 -7.42 -7.41 -7.38 -7.35 -7.29 -7.23 -7.17 -7.12 -7.08 -7.03 -6.98 -6.94 -6.89 -6.85 -6.83 -6.78 -6.73 -6.64 -6.55 -6.48 -6.38 -6.30 -6.25 -6.29 -6.33 -6.35 -6.36 -6.39 -6.41 -6.41 -6.41 -6.39 -6.39 -6.41 -6.42 -6.43 -6.44 -6.44 -6.44 -6.45 -6.46 -6.48 -6.48 -6.49 -6.52 -6.53 -6.51 -6.48 -6.45 -6.42 -6.40 -6.38 -6.34 -6.29 -6.27 -6.23 -6.19 -6.16 -6.07 -5.99 -5.90 -5.82 -5.74 -5.65 -5.70 -5.70 -5.74 -5.77 -5.80 -5.83 -5.87 -5.90 -5.91 -5.92 -5.94 -5.95 -6.01 -6.07 -6.12
-9999.00 -9999.00 -9999.00 -9999.00 -9999.00 -9999.00 -9999.00 -9999.00 -9999.00 -9999.00 -9999.00 -9999.00 -9999.00 -9999.00 -9999.00 -9999.00 -9999.00 -9999.00 -9999.00 -9999.00 -9999.00 -9999.00 -9999.00 -9999.00 -9999.00 -9999.00 -9999.00 -9999.00 -9999.00 -9999.00 -9999.00 -9999.00 -9999.00 -9999.00 -9999.00 -9999.00 -9999.00 -9999.00 -9999.00 -9999.00 -9999.00 -9999.00 -9999.00 -9999.00 -9999.00 -9999.00 -9999.00 -9999.00 -9999.00 -9999.00 -9999.00 -9999.00 -9999.00 -9999.00 -9999.00 -9999.00 -9999.00 -9999.00 -9999.00 -9999.00 -9999.00 -9999.00 -9999.00 -9999.00 -9999.00 -9999.00 -9999.00 -9999.00 -9999.00 -9999.00 -9999.00 -9999.00 -9999.00 -9999.00 -9999.00 -9999.00 -9999.00 -9999.00 -9999.00 -9999.00 -9999.00 -9999.00 -9999.00 -9999.00 -9999.00 -9999.00 -9999.00 -9999.00 -9999.00 -9999.00 -9999.00 -9999.00 -9999.00 -9999.00 -9999.00 -9999.00 -9999.00 -9999.00 -9999.00 -9999.00 -9999.00 -9999.00 -9999.00 -9999.00 -9999.00 -9999.00 -9999.00 -9999.00 -9999.00 -9999.00 -9999.00 -9999.00 -9999.00 -9999.00 -9999.00 -9999.00 -9999.00 -9999.00 -9999.00 -9999.00 -9999.00 -14.35 -14.31 -14.24 -14.16 -14.00 -13.92 -13.84 -13.75 -13.67 -13.59 -13.45 -13.36 -13.31 -13.26 -13.18 -13.15 -13.05 -12.98 -12.92 -12.87 -12.84 -12.83 -12.79 -12.74 -12.71 -12.65 -12.61 -12.60 -12.60 -12.59 -12.58 -12.56 -12.55 -12.46 -12.40 -12.38 -12.35 -12.37 -12.44 -12.41 -12.49 -12.52 -12.56 -12.56 -12.50 -12.48 -12.46 -12.42 -12.39 -12.35 -12.29 -12.24 -12.19 -12.13 -12.08 -12.00 -11.97 -11.94 -11.93 -11.91 -11.91 -11.95 -11.94 -11.91 -11.92 -11.96 -11.92 -11.92 -11.83 -11.74 -11.67 -11.58 -11.46 -11.38 -11.35 -11.24 -11.18 -11.12 -11.02 -10.95 -10.88 -10.81 -10.75 -10.67 -10.60 -10.57 -10.51 -10.47 -10.41 -10.36 -10.32 -10.31 -10.31 -10.29 -10.23 -10.18 -10.13 -10.08 -10.06 -10.00 -9.97 -9.96 -9.92 -9.87 -9.84 -9.81 -9.78 -9.73 -9.70 -9.67 -9.62 -9.56 -9.53 -9.51 -9.45 -9.39 -9.35 -9.28 -9.22 -9.17 -9.11 -9.06 -9.01 -8.96 -8.91 -8.87 -8.85 -8.82 -8.82 -8.82 -8.82 -8.80 -8.76 -8.78 -8.65 -8.62 -8.54 -8.49 -8.44 -8.41 -8.41 -8.34 -8.27 -8.24 -8.20 -8.15 -8.06 -8.05 -8.05 -8.05 -8.03 -8.02 -7.99 -7.98 -7.94 -7.89 -7.83 -7.78 -7.72 -7.68 -7.63 -7.59 -7.55 -7.51 -7.48 -7.42 -7.37 -7.39 -7.40 -7.41 -7.41 -7.40 -7.39 -7.35 -7.32 -7.29 -7.25 -7.21 -7.17 -7.13 -7.09 -7.05 -7.01 -6.97 -6.93 -6.88 -6.83 -6.77 -6.72 -6.63 -6.56 -6.54 -6.45 -6.36 -6.31 -6.29 -6.24 -6.25 -6.27 -6.28 -6.28 -6.28 -6.29 -6.27 -6.27 -6.26 -6.28 -6.29 -6.27 -6.29 -6.31 -6.30 -6.29 -6.28 -6.30 -6.34 -6.35 -6.37 -6.40 -6.40 -6.37 -6.35 -6.33 -6.31 -6.29 -6.30 -6.27 -6.23 -6.20 -6.16 -6.13 -6.13 -6.04 -5.95 -5.85 -5.74 -5.64 -5.55 -5.48 -5.52 -5.51 -5.49 -5.51 -5.52 -5.62 -5.74 -5.76 -5.77 -5.79 -5.86 -5.91 -5.97 -6.03
-9999.00 -9999.00 -9999.00 -9999.00 -9999.00 -9999.00 -9999.00 -9999.00 -9999.00 -9999.00 -9999.00 -9999.00 -9999.00 -9999.00 -9999.00 -9999.00 -9999.00 -9999.00 -9999.00 -9999.00 -9999.00 -9999.00 -9999.00 -9999.00 -9999.00 -9999.00 -9999.00 -9999.00 -9999.00 -9999.00 -9999.00 -9999.00 -9999.00 -9999.00 -9999.00 -9999.00 -9999.00 -9999.00 -9999.00 -9999.00 -9999.00 -9999.00 -9999.00 -9999.00 -9999.00 -9999.00 -9999.00 -9999.00 -9999.00 -9999.00 -9999.00 -9999.00 -9999.00 -9999.00 -9999.00 -9999.00 -9999.00 -9999.00 -9999.00 -9999.00 -9999.00 -9999.00 -9999.00 -9999.00 -9999.00 -9999.00 -9999.00 -9999.00 -9999.00 -9999.00 -9999.00 -9999.00 -9999.00 -9999.00 -9999.00 -9999.00 -9999.00 -9999.00 -9999.00 -9999.00 -9999.00 -9999.00 -9999.00 -9999.00 -9999.00 -9999.00 -9999.00 -9999.00 -9999.00 -9999.00 -9999.00 -9999.00 -9999.00 -9999.00 -9999.00 -9999.00 -9999.00 -9999.00 -9999.00 -9999.00 -9999.00 -9999.00 -9999.00 -9999.00 -9999.00 -9999.00 -9999.00 -9999.00 -9999.00 -9999.00 -9999.00 -9999.00 -9999.00 -9999.00 -9999.00 -9999.00 -9999.00 -9999.00 -9999.00 -9999.00 -14.30 -14.24 -14.16 -14.05 -13.92 -13.83 -13.77 -13.68 -13.61 -13.53 -13.38 -13.29 -13.24 -13.19 -13.12 -13.08 -12.99 -12.92 -12.86 -12.78 -12.75 -12.73 -12.69 -12.67 -12.63 -12.59 -12.55 -12.54 -12.54 -12.53 -12.53 -12.51 -12.50 -12.42 -12.38 -12.35 -12.31 -12.36 -12.37 -12.34 -12.43 -12.46 -12.50 -12.53 -12.46 -12.46 -12.43 -12.40 -12.37 -12.34 -12.30 -12.24 -12.22 -12.13 -12.08 -12.02 -11.93 -11.86 -11.82 -11.81 -11.84 -11.86 -11.83 -11.88 -11.85 -11.89 -11.88 -11.87 -11.79 -11.74 -11.66 -11.53 -11.44 -11.37 -11.27 -11.19 -11.15 -11.08 -10.98 -10.91 -10.85 -10.77 -10.74 -10.60 -10.51 -10.52 -10.48 -10.38 -10.36 -10.33 -10.26 -10.25 -10.21 -10.18 -10.16 -10.11 -10.06 -10.01 -9.96 -9.89 -9.85 -9.85 -9.80 -9.81 -9.75 -9.68 -9.67 -9.62 -9.57 -9.54 -9.48 -9.47 -9.47 -9.42 -9.37 -9.34 -9.28 -9.22 -9.18 -9.13 -9.06 -9.02 -8.98 -8.91 -8.87 -8.83 -8.80 -8.76 -8.72 -8.73 -8.70 -8.70 -8.65 -8.68 -8.63 -8.58 -8.51 -8.49 -8.45 -8.42 -8.40 -8.36 -8.33 -8.28 -8.25 -8.19 -8.12 -8.09 -8.02 -8.00 -7.96 -7.95 -7.95 -7.93 -7.91 -7.89 -7.84 -7.79 -7.74 -7.71 -7.63 -7.56 -7.52 -7.49 -7.47 -7.43 -7.38 -7.35 -7.37 -7.36 -7.35 -7.34 -7.30 -7.28 -7.26 -7.24 -7.20 -7.18 -7.15 -7.07 -7.05 -7.02 -6.98 -6.94 -6.90 -6.86 -6.81 -6.72 -6.65 -6.63 -6.56 -6.48 -6.43 -6.37 -6.29 -6.24 -6.19 -6.14 -6.15 -6.17 -6.17 -6.15 -6.15 -6.16 -6.15 -6.16 -6.15 -6.13 -6.12 -6.16 -6.15 -6.17 -6.18 -6.17 -6.15 -6.15 -6.17 -6.18 -6.23 -6.27 -6.27 -6.25 -6.23 -6.20 -6.17 -6.15 -6.13 -6.13 -6.10 -6.07 -6.05 -6.02 -6.01 -5.91 -5.80 -5.70 -5.59 -5.49 -5.38 -5.29 -5.34 -5.38 -5.41 -5.44 -5.45 -5.47 -5.50 -5.57 -5.66 -5.67 -5.76 -5.79 -5.80 -5.85
-9999.00 -9999.00 -9999.00 -9999.00 -9999.00 -9999.00 -9999.00 -9999.00 -9999.00 -9999.00 -9999.00 -9999.00 -9999.00 -9999.00 -9999.00 -9999.00 -9999.00 -9999.00 -9999.00 -9999.00 -9999.00 -9999.00 -9999.00 -9999.00 -9999.00 -9999.00 -9999.00 -9999.00 -9999.00 -9999.00 -9999.00 -9999.00 -9999.00 -9999.00 -9999.00 -9999.00 -9999.00 -9999.00 -9999.00 -9999.00 -9999.00 -9999.00 -9999.00 -9999.00 -9999.00 -9999.00 -9999.00 -9999.00 -9999.00 -9999.00 -9999.00 -9999.00 -9999.00 -9999.00 -9999.00 -9999.00 -9999.00 -9999.00 -9999.00 -9999.00 -9999.00 -9999.00 -9999.00 -9999.00 -9999.00 -9999.00 -9999.00 -9999.00 -9999.00 -9999.00 -9999.00 -9999.00 -9999.00 -9999.00 -9999.00 -9999.00 -9999.00 -9999.00 -9999.00 -9999.00 -9999.00 -9999.00 -9999.00 -9999.00 -9999.00 -9999.00 -9999.00 -9999.00 -9999.00 -9999.00 -9999.00 -9999.00 -9999.00 -9999.00 -9999.00 -9999.00 -9999.00 -9999.00 -9999.00 -9999.00 -9999.00 -9999.00 -9999.00 -9999.00 -9999.00 -9999.00 -9999.00 -9999.00 -9999.00 -9999.00 -9999.00 -9999.00 -9999.00 -9999.00 -9999.00 -9999.00 -9999.00 -9999.00 -9999.00 -14.26 -14.18 -14.10 -14.01 -13.87 -13.75 -13.69 -13.62 -13.55 -13.47 -13.32 -13.23 -13.17 -13.12 -13.05 -13.02 -12.93 -12.87 -12.81 -12.73 -12.70 -12.66 -12.62 -12.61 -12.58 -12.55 -12.55 -12.52 -12.49 -12.48 -12.48 -12.43 -12.44 -12.37 -12.33 -12.31 -12.28 -12.30 -12.31 -12.31 -12.38 -12.39 -12.44 -12.49 -12.42 -12.43 -12.40 -12.38 -12.36 -12.33 -12.30 -12.26 -12.20 -12.15 -12.09 -12.02 -11.96 -11.86 -11.79 -11.74 -11.77 -11.74 -11.75 -11.77 -11.77 -11.78 -11.81 -11.80 -11.78 -11.69 -11.62 -11.51 -11.40 -11.36 -11.25 -11.17 -11.08 -11.04 -10.95 -10.91 -10.82 -10.72 -10.67 -10.57 -10.53 -10.48 -10.39 -10.37 -10.29 -10.27 -10.22 -10.18 -10.15 -10.13 -10.08 -10.04 -9.97 -9.92 -9.86 -9.83 -9.79 -9.74 -9.74 -9.68 -9.64 -9.60 -9.59 -9.52 -9.46 -9.41 -9.41 -9.40 -9.37 -9.35 -9.30 -9.28 -9.23 -9.18 -9.11 -9.07 -9.03 -8.97 -8.92 -8.85 -8.80 -8.78 -8.76 -8.74 -8.68 -8.67 -8.65 -8.65 -8.64 -8.61 -8.56 -8.54 -8.51 -8.50 -8.48 -8.43 -8.41 -8.36 -8.36 -8.34 -8.31 -8.25 -8.21 -8.13 -8.05 -7.92 -7.94 -7.92 -7.88 -7.88 -7.88 -7.86 -7.87 -7.86 -7.77 -7.69 -7.61 -7.57 -7.52 -7.46 -7.41 -7.39 -7.37 -7.32 -7.32 -7.30 -7.29 -7.26 -7.24 -7.22 -7.20 -7.20 -7.18 -7.14 -7.10 -7.05 -7.00 -6.96 -6.93 -6.87 -6.86 -6.85 -6.75 -6.68 -6.70 -6.60 -6.52 -6.49 -6.45 -6.35 -6.21 -6.16 -6.11 -6.06 -6.05 -6.04 -6.05 -6.06 -6.08 -6.10 -6.07 -5.98 -5.96 -5.93 -5.97 -6.03 -6.06 -6.03 -6.06 -6.05 -6.03 -6.05 -6.08 -6.10 -6.14 -6.19 -6.22 -6.20 -6.16 -6.10 -6.05 -5.99 -5.97 -5.98 -5.99 -5.97 -5.95 -5.93 -5.89 -5.80 -5.71 -5.62 -5.52 -5.42 -5.33 -5.23 -5.12 -5.12 -5.17 -5.21 -5.26 -5.32 -5.37 -5.42 -5.47 -5.52 -5.57 -5.65 -5.69 -5.73 -5.75
-9999.00 -9999.00 -9999.00 -9999.00 -9999.00 -9999.00 -9999.00 -9999.00 -9999.00 -9999.00 -9999.00 -9999.00 -9999.00 -9999.00 -9999.00 -9999.00 -9999.00 -9999.00 -9999.00 -9999.00 -9999.00 -9999.00 -9999.00 -9999.00 -9999.00 -9999.00 -9999.00 -9999.00 -9999.00 -9999.00 -9999.00 -9999.00 -9999.00 -9999.00 -9999.00 -9999.00 -9999.00 -9999.00 -9999.00 -9999.00 -9999.00 -9999.00 -9999.00 -9999.00 -9999.00 -9999.00 -9999.00 -9999.00 -9999.00 -9999.00 -9999.00 -9999.00 -9999.00 -9999.00 -9999.00 -9999.00 -9999.00 -9999.00 -9999.00 -9999.00 -9999.00 -9999.00 -9999.00 -9999.00 -9999.00 -9999.00 -9999.00 -9999.00 -9999.00 -9999.00 -9999.00 -9999.00 -9999.00 -9999.00 -9999.00 -9999.00 -9999.00 -9999.00 -9999.00 -9999.00 -9999.00 -9999.00 -9999.00 -9999.00 -9999.00 -9999.00 -9999.00 -9999.00 -9999.00 -9999.00 -9999.00 -9999.00 -9999.00 -9999.00 -9999.00 -9999.00 -9999.00 -9999.00 -9999.00 -9999.00 -9999.00 -9999.00 -9999.00 -9999.00 -9999.00 -9999.00 -9999.00 -9999.00 -9999.00 -9999.00 -9999.00 -9999.00 -9999.00 -9999.00 -9999.00 -9999.00 -9999.00 -9999.00 -14.21 -14.13 -14.05 -13.92 -13.83 -13.75 -13.62 -13.55 -13.49 -13.41 -13.26 -13.16 -13.10 -13.05 -12.99 -12.95 -12.87 -12.81 -12.74 -12.68 -12.65 -12.60 -12.56 -12.53 -12.55 -12.49 -12.49 -12.47 -12.44 -12.44 -12.43 -12.40 -12.38 -12.34 -12.27 -12.27 -12.25 -12.24 -12.25 -12.25 -12.31 -12.32 -12.37 -12.40 -12.39 -12.40 -12.38 -12.36 -12.34 -12.33 -12.30 -12.27 -12.20 -12.16 -12.09 -12.03 -11.96 -11.88 -11.81 -11.72 -11.69 -11.68 -11.69 -11.70 -11.70 -11.73 -11.75 -11.87 -11.73 -11.64 -11.58 -11.50 -11.40 -11.32 -11.25 -11.19 -11.11 -11.00 -10.93 -10.86 -10.78 -10.73 -10.64 -10.52 -10.51 -10.44 -10.37 -10.29 -10.29 -10.20 -10.17 -10.13 -10.09 -10.04 -10.00 -9.96 -9.90 -9.84 -9.80 -9.75 -9.73 -9.64 -9.62 -9.57 -9.53 -9.54 -9.50 -9.44 -9.38 -9.34 -9.34 -9.33 -9.28 -9.27 -9.24 -9.19 -9.15 -9.11 -9.08 -9.05 -8.98 -8.93 -8.88 -8.84 -8.78 -8.78 -8.74 -8.72 -8.69 -8.68 -8.66 -8.61 -8.57 -8.56 -8.54 -8.53 -8.51 -8.49 -8.49 -8.45 -8.41 -8.39 -8.37 -8.36 -8.35 -8.34 -8.26 -8.18 -8.09 -8.00 -7.91 -7.84 -7.85 -7.86 -7.84 -7.86 -7.85 -7.79 -7.73 -7.65 -7.58 -7.53 -7.47 -7.42 -7.37 -7.34 -7.32 -7.32 -7.30 -7.26 -7.25 -7.19 -7.20 -7.20 -7.18 -7.16 -7.13 -7.10 -7.05 -7.00 -6.96 -6.90 -6.87 -6.83 -6.80 -6.76 -6.73 -6.68 -6.61 -6.58 -6.58 -6.54 -6.47 -6.36 -6.26 -6.12 -6.08 -6.04 -6.00 -5.98 -6.01 -6.03 -6.05 -6.01 -5.99 -5.86 -5.72 -5.72 -5.73 -5.78 -5.84 -5.94 -5.91 -5.90 -5.91 -5.93 -5.96 -5.99 -6.01 -6.02 -6.04 -6.07 -6.06 -5.98 -5.97 -5.94 -5.90 -5.87 -5.83 -5.80 -5.75 -5.70 -5.62 -5.55 -5.49 -5.46 -5.41 -5.33 -5.25 -5.17 -5.09 -5.04 -5.06 -5.09 -5.11 -5.13 -5.16 -5.22 -5.27 -5.35 -5.42 -5.53 -5.52 -5.57 -5.61 -5.66
-9999.00 -9999.00 -9999.00 -9999.00 -9999.00 -9999.00 -9999.00 -9999.00 -9999.00 -9999.00 -9999.00 -9999.00 -9999.00 -9999.00 -9999.00 -9999.00 -9999.00 -9999.00 -9999.00 -9999.00 -9999.00 -9999.00 -9999.00 -9999.00 -9999.00 -9999.00 -9999.00 -9999.00 -9999.00 -9999.00 -9999.00 -9999.00 -9999.00 -9999.00 -9999.00 -9999.00 -9999.00 -9999.00 -9999.00 -9999.00 -9999.00 -9999.00 -9999.00 -9999.00 -9999.00 -9999.00 -9999.00 -9999.00 -9999.00 -9999.00 -9999.00 -9999.00 -9999.00 -9999.00 -9999.00 -9999.00 -9999.00 -9999.00 -9999.00 -9999.00 -9999.00 -9999.00 -9999.00 -9999.00 -9999.00 -9999.00 -9999.00 -9999.00 -9999.00 -9999.00 -9999.00 -9999.00 -9999.00 -9999.00 -9999.00 -9999.00 -9999.00 -9999.00 -9999.00 -9999.00 -9999.00 -9999.00 -9999.00 -9999.00 -9999.00 -9999.00 -9999.00 -9999.00 -9999.00 -9999.00 -9999.00 -9999.00 -9999.00 -9999.00 -9999.00 -9999.00 -9999.00 -9999.00 -9999.00 -9999.00 -9999.00 -9999.00 -9999.00 -9999.00 -9999.00 -9999.00 -9999.00 -9999.00 -9999.00 -9999.00 -9999.00 -9999.00 -9999.00 -9999.00 -9999.00 -9999.00 -9999.00 -14.16 -14.07 -13.99 -13.88 -13.80 -13.71 -13.62 -13.48 -13.44 -13.35 -13.21 -13.10 -13.03 -12.98 -12.93 -12.87 -12.84 -12.76 -12.67 -12.65 -12.59 -12.57 -12.52 -12.51 -12.50 -12.46 -12.45 -12.43 -12.41 -12.41 -12.36 -12.37 -12.34 -12.31 -12.23 -12.24 -12.22 -12.17 -12.19 -12.18 -12.24 -12.25 -12.28 -12.32 -12.31 -12.33 -12.37 -12.33 -12.33 -12.33 -12.30 -12.27 -12.23 -12.16 -12.10 -12.03 -11.97 -11.90 -11.82 -11.74 -11.70 -11.65 -11.60 -11.62 -11.63 -11.64 -11.66 -11.65 -11.61 -11.58 -11.55 -11.47 -11.38 -11.32 -11.23 -11.13 -11.10 -11.00 -10.92 -10.85 -10.75 -10.71 -10.59 -10.53 -10.48 -10.34 -10.31 -10.31 -10.16 -10.15 -10.12 -10.08 -10.01 -9.97 -9.94 -9.90 -9.82 -9.80 -9.75 -9.71 -9.62 -9.56 -9.52 -9.47 -9.45 -9.46 -9.41 -9.35 -9.30 -9.27 -9.27 -9.24 -9.24 -9.19 -9.16 -9.13 -9.10 -9.08 -9.06 -8.99 -8.93 -8.91 -8.86 -8.78 -8.77 -8.74 -8.73 -8.74 -8.68 -8.64 -8.61 -8.59 -8.56 -8.54 -8.53 -8.50 -8.53 -8.50 -8.49 -8.46 -8.41 -8.40 -8.37 -8.37 -8.36 -8.34 -8.31 -8.24 -8.14 -8.03 -7.95 -7.89 -7.85 -7.81 -7.84 -7.82 -7.79 -7.76 -7.70 -7.64 -7.56 -7.50 -7.47 -7.42 -7.33 -7.34 -7.32 -7.29 -7.28 -7.26 -7.23 -7.20 -7.19 -7.15 -7.13 -7.11 -7.10 -7.08 -7.10 -7.04 -6.99 -6.93 -6.87 -6.78 -6.72 -6.69 -6.68 -6.65 -6.68 -6.65 -6.63 -6.58 -6.48 -6.36 -6.25 -6.18 -6.10 -6.02 -6.01 -6.00 -6.04 -5.99 -5.93 -5.96 -5.89 -5.74 -5.60 -5.47 -5.41 -5.49 -5.55 -5.62 -5.72 -5.79 -5.79 -5.83 -5.92 -5.89 -5.89 -5.89 -5.88 -5.89 -5.89 -5.87 -5.83 -5.79 -5.75 -5.71 -5.67 -5.62 -5.58 -5.52 -5.45 -5.39 -5.30 -5.22 -5.22 -5.23 -5.21 -5.17 -5.13 -5.07 -5.04 -5.05 -5.06 -5.06 -5.06 -5.05 -5.15 -5.23 -5.30 -5.33 -5.38 -5.37 -5.42 -5.46 -5.51
-9999.00 -9999.00 -9999.00 -9999.00 -9999.00 -9999.00 -9999.00 -9999.00 -9999.00 -9999.00 -9999.00 -9999.00 -9999.00 -9999.00 -9999.00 -9999.00 -9999.00 -9999.00 -9999.00 -9999.00 -9999.00 -9999.00 -9999.00 -9999.00 -9999.00 -9999.00 -9999.00 -9999.00 -9999.00 -9999.00 -9999.00 -9999.00 -9999.00 -9999.00 -9999.00 -9999.00 -9999.00 -9999.00 -9999.00 -9999.00 -9999.00 -9999.00 -9999.00 -9999.00 -9999.00 -9999.00 -9999.00 -9999.00 -9999.00 -9999.00 -9999.00 -9999.00 -9999.00 -9999.00 -9999.00 -9999.00 -9999.00 -9999.00 -9999.00 -9999.00 -9999.00 -9999.00 -9999.00 -9999.00 -9999.00 -9999.00 -9999.00 -9999.00 -9999.00 -9999.00 -9999.00 -9999.00 -9999.00 -9999.00 -9999.00 -9999.00 -9999.00 -9999.00 -9999.00 -9999.00 -9999.00 -9999.00 -9999.00 -9999.00 -9999.00 -9999.00 -9999.00 -9999.00 -9999.00 -9999.00 -9999.00 -9999.00 -9999.00 -9999.00 -9999.00 -9999.00 -9999.00 -9999.00 -9999.00 -9999.00 -9999.00 -9999.00 -9999.00 -9999.00 -9999.00 -9999.00 -9999.00 -9999.00 -9999.00 -9999.00 -9999.00 -9999.00 -9999.00 -9999.00 -9999.00 -9999.00 -14.12 -14.02 -13.94 -13.82 -13.76 -13.67 -13.55 -13.45 -13.39 -13.23 -13.15 -13.04 -12.96 -12.91 -12.86 -12.80 -12.78 -12.67 -12.62 -12.58 -12.53 -12.52 -12.48 -12.47 -12.45 -12.42 -12.41 -12.37 -12.36 -12.35 -12.33 -12.32 -12.29 -12.27 -12.18 -12.20 -12.15 -12.11 -12.13 -12.11 -12.17 -12.19 -12.21 -12.23 -12.24 -12.24 -12.29 -12.27 -12.29 -12.36 -12.31 -12.29 -12.23 -12.17 -12.10 -12.04 -11.97 -11.91 -11.84 -11.76 -11.68 -11.65 -11.60 -11.56 -11.55 -11.56 -11.58 -11.56 -11.53 -11.50 -11.48 -11.43 -11.37 -11.32 -11.27 -11.13 -11.07 -10.99 -10.91 -10.82 -10.73 -10.66 -10.57 -10.52 -10.40 -10.36 -10.33 -10.20 -10.17 -10.03 -10.05 -9.97 -9.94 -9.90 -9.84 -9.80 -9.76 -9.73 -9.67 -9.59 -9.54 -9.50 -9.46 -9.42 -9.39 -9.39 -9.31 -9.29 -9.24 -9.20 -9.20 -9.17 -9.16 -9.12 -9.09 -9.10 -9.05 -9.03 -8.97 -8.92 -8.91 -8.87 -8.80 -8.77 -8.73 -8.73 -8.70 -8.67 -8.66 -8.66 -8.64 -8.63 -8.56 -8.55 -8.49 -8.50 -8.52 -8.48 -8.47 -8.43 -8.41 -8.37 -8.37 -8.35 -8.32 -8.30 -8.28 -8.23 -8.16 -8.09 -8.02 -7.92 -7.86 -7.83 -7.78 -7.78 -7.75 -7.70 -7.64 -7.62 -7.60 -7.54 -7.49 -7.43 -7.39 -7.34 -7.30 -7.27 -7.25 -7.23 -7.18 -7.16 -7.13 -7.11 -7.09 -7.09 -7.06 -7.05 -7.04 -7.03 -6.95 -6.91 -6.88 -6.82 -6.72 -6.70 -6.69 -6.67 -6.67 -6.64 -6.64 -6.60 -6.50 -6.41 -6.33 -6.26 -6.18 -6.05 -6.02 -6.00 -5.94 -5.91 -5.90 -5.88 -5.77 -5.64 -5.57 -5.46 -5.35 -5.24 -5.27 -5.40 -5.53 -5.66 -5.78 -5.84 -5.82 -5.83 -5.82 -5.82 -5.82 -5.79 -5.77 -5.76 -5.73 -5.69 -5.65 -5.61 -5.57 -5.53 -5.49 -5.43 -5.36 -5.28 -5.20 -5.13 -5.05 -5.04 -5.04 -5.04 -5.03 -5.02 -5.02 -5.05 -5.04 -5.02 -5.00 -5.02 -5.03 -5.06 -5.11 -5.17 -5.17 -5.16 -5.19 -5.24 -5.30 -5.35
-9999.00 -9999.00 -9999.00 -9999.00 -9999.00 -9999.00 -9999.00 -9999.00 -9999.00 -9999.00 -9999.00 -9999.00 -9999.00 -9999.00 -9999.00 -9999.00 -9999.00 -9999.00 -9999.00 -9999.00 -9999.00 -9999.00 -9999.00 -9999.00 -9999.00 -9999.00 -9999.00 -9999.00 -9999.00 -9999.00 -9999.00 -9999.00 -9999.00 -9999.00 -9999.00 -9999.00 -9999.00 -9999.00 -9999.00 -9999.00 -9999.00 -9999.00 -9999.00 -9999.00 -9999.00 -9999.00 -9999.00 -9999.00 -9999.00 -9999.00 -9999.00 -9999.00 -9999.00 -9999.00 -9999.00 -9999.00 -9999.00 -9999.00 -9999.00 -9999.00 -9999.00 -9999.00 -9999.00 -9999.00 -9999.00 -9999.00 -9999.00 -9999.00 -9999.00 -9999.00 -9999.00 -9999.00 -9999.00 -9999.00 -9999.00 -9999.00 -9999.00 -9999.00 -9999.00 -9999.00 -9999.00 -9999.00 -9999.00 -9999.00 -9999.00 -9999.00 -9999.00 -9999.00 -9999.00 -9999.00 -9999.00 -9999.00 -9999.00 -9999.00 -9999.00 -9999.00 -9999.00 -9999.00 -9999.00 -9999.00 -9999.00 -9999.00 -9999.00 -9999.00 -9999.00 -9999.00 -9999.00 -9999.00 -9999.00 -9999.00 -9999.00 -9999.00 -9999.00 -9999.00 -9999.00 -9999.00 -13.97 -13.89 -13.79 -13.72 -13.63 -13.52 -13.43 -13.34 -13.19 -13.05 -12.97 -12.89 -12.84 -12.79 -12.73 -12.72 -12.62 -12.59 -12.52 -12.50 -12.45 -12.44 -12.44 -12.40 -12.39 -12.36 -12.35 -12.33 -12.31 -12.29 -12.27 -12.26 -12.21 -12.13 -12.14 -12.09 -12.05 -12.07 -12.05 -12.11 -12.12 -12.12 -12.15 -12.17 -12.14 -12.21 -12.19 -12.21 -12.25 -12.34 -12.30 -12.24 -12.17 -12.11 -12.04 -11.98 -11.91 -11.85 -11.78 -11.69 -11.64 -11.61 -11.57 -11.53 -11.48 -11.49 -11.48 -11.47 -11.45 -11.40 -11.38 -11.31 -11.25 -11.33 -11.17 -11.08 -10.98 -10.88 -10.80 -10.75 -10.65 -10.58 -10.47 -10.38 -10.35 -10.24 -10.22 -10.12 -10.06 -10.02 -9.90 -9.86 -9.82 -9.79 -9.74 -9.69 -9.66 -9.57 -9.52 -9.45 -9.44 -9.40 -9.37 -9.33 -9.30 -9.27 -9.20 -9.16 -9.15 -9.15 -9.12 -9.08 -9.07 -9.08 -9.00 -9.00 -8.95 -8.93 -8.89 -8.86 -8.79 -8.77 -8.73 -8.71 -8.68 -8.66 -8.67 -8.68 -8.71 -8.69 -8.61 -8.56 -8.52 -8.46 -8.52 -8.47 -8.46 -8.40 -8.39 -8.35 -8.36 -8.33 -8.30 -8.28 -8.25 -8.20 -8.18 -8.17 -8.15 -8.02 -7.97 -7.89 -7.82 -7.78 -7.75 -7.70 -7.65 -7.64 -7.59 -7.55 -7.55 -7.49 -7.42 -7.35 -7.32 -7.28 -7.22 -7.18 -7.16 -7.13 -7.11 -7.10 -7.08 -7.07 -7.04 -7.03 -6.98 -6.99 -6.98 -6.94 -6.90 -6.85 -6.80 -6.74 -6.70 -6.65 -6.63 -6.63 -6.59 -6.60 -6.61 -6.58 -6.48 -6.42 -6.34 -6.25 -6.18 -6.09 -6.00 -5.95 -5.95 -5.88 -5.83 -5.74 -5.64 -5.54 -5.44 -5.35 -5.26 -5.19 -5.38 -5.51 -5.64 -5.68 -5.74 -5.72 -5.74 -5.71 -5.74 -5.76 -5.76 -5.74 -5.71 -5.68 -5.65 -5.59 -5.52 -5.47 -5.42 -5.37 -5.31 -5.24 -5.14 -5.04 -4.94 -4.86 -4.78 -4.73 -4.76 -4.80 -4.82 -4.84 -4.88 -4.90 -4.91 -4.91 -4.92 -4.93 -4.94 -5.00 -5.01 -5.03 -5.06 -5.08 -5.11 -5.14 -5.17 -5.19
-9999.00 -9999.00 -9999.00 -9999.00 -9999.00 -9999.00 -9999.00 -9999.00 -9999.00 -9999.00 -9999.00 -9999.00 -9999.00 -9999.00 -9999.00 -9999.00 -9999.00 -9999.00 -9999.00 -9999.00 -9999.00 -9999.00 -9999.00 -9999.00 -9999.00 -9999.00 -9999.00 -9999.00 -9999.00 -9999.00 -9999.00 -9999.00 -9999.00 -9999.00 -9999.00 -9999.00 -9999.00 -9999.00 -9999.00 -9999.00 -9999.00 -9999.00 -9999.00 -9999.00 -9999.00 -9999.00 -9999.00 -9999.00 -9999.00 -9999.00 -9999.00 -9999.00 -9999.00 -9999.00 -9999.00 -9999.00 -9999.00 -9999.00 -9999.00 -9999.00 -9999.00 -9999.00 -9999.00 -9999.00 -9999.00 -9999.00 -9999.00 -9999.00 -9999.00 -9999.00 -9999.00 -9999.00 -9999.00 -9999.00 -9999.00 -9999.00 -9999.00 -9999.00 -9999.00 -9999.00 -9999.00 -9999.00 -9999.00 -9999.00 -9999.00 -9999.00 -9999.00 -9999.00 -9999.00 -9999.00 -9999.00 -9999.00 -9999.00 -9999.00 -9999.00 -9999.00 -9999.00 -9999.00 -9999.00 -9999.00 -9999.00 -9999.00 -9999.00 -9999.00 -9999.00 -9999.00 -9999.00 -9999.00 -9999.00 -9999.00 -9999.00 -9999.00 -9999.00 -9999.00 -9999.00 -13.91 -13.83 -13.75 -13.68 -13.56 -13.51 -13.41 -13.31 -13.18 -13.04 -12.96 -12.88 -12.78 -12.72 -12.66 -12.66 -12.55 -12.53 -12.46 -12.47 -12.41 -12.40 -12.41 -12.35 -12.33 -12.32 -12.31 -12.30 -12.26 -12.24 -12.22 -12.22 -12.17 -12.12 -12.09 -12.03 -11.99 -12.00 -11.98 -12.03 -12.05 -12.02 -12.06 -12.09 -12.07 -12.13 -12.11 -12.14 -12.17 -12.20 -12.26 -12.25 -12.18 -12.11 -12.05 -11.98 -11.92 -11.85 -11.79 -11.71 -11.65 -11.61 -11.58 -11.53 -11.50 -11.44 -11.40 -11.40 -11.39 -11.35 -11.31 -11.25 -11.21 -11.13 -11.13 -11.07 -10.96 -10.88 -10.82 -10.74 -10.67 -10.57 -10.47 -10.37 -10.29 -10.25 -10.20 -10.12 -10.06 -9.99 -9.88 -9.82 -9.76 -9.70 -9.67 -9.63 -9.55 -9.49 -9.45 -9.43 -9.38 -9.35 -9.30 -9.26 -9.25 -9.18 -9.15 -9.08 -9.09 -9.07 -9.04 -9.03 -9.04 -8.97 -8.97 -8.93 -8.92 -8.89 -8.85 -8.79 -8.76 -8.74 -8.64 -8.66 -8.66 -8.69 -8.69 -8.68 -8.66 -8.63 -8.60 -8.55 -8.51 -8.52 -8.46 -8.42 -8.41 -8.38 -8.33 -8.37 -8.30 -8.28 -8.25 -8.22 -8.18 -8.17 -8.14 -8.11 -8.08 -7.99 -7.97 -7.89 -7.81 -7.75 -7.73 -7.69 -7.64 -7.58 -7.57 -7.54 -7.49 -7.45 -7.42 -7.35 -7.30 -7.25 -7.19 -7.14 -7.15 -7.15 -7.13 -7.11 -7.05 -7.03 -6.99 -6.99 -6.94 -6.91 -6.93 -6.90 -6.88 -6.83 -6.81 -6.78 -6.71 -6.63 -6.58 -6.54 -6.55 -6.55 -6.55 -6.55 -6.57 -6.50 -6.42 -6.31 -6.24 -6.18 -6.12 -6.06 -6.00 -5.93 -5.86 -5.80 -5.75 -5.74 -5.65 -5.59 -5.51 -5.44 -5.40 -5.46 -5.52 -5.59 -5.63 -5.61 -5.64 -5.63 -5.64 -5.66 -5.69 -5.71 -5.69 -5.66 -5.62 -5.59 -5.53 -5.46 -5.39 -5.32 -5.25 -5.19 -5.14 -5.08 -5.03 -4.97 -4.92 -4.85 -4.81 -4.80 -4.80 -4.79 -4.79 -4.78 -4.80 -4.82 -4.84 -4.85 -4.87 -4.92 -4.94 -4.95 -4.97 -4.98 -5.00 -5.01 -5.03 -5.06 -5.03
-9999.00 -9999.00 -9999.00 -9999.00 -9999.00 -9999.00 -9999.00 -9999.00 -9999.00 -9999.00 -9999.00 -9999.00 -9999.00 -9999.00 -9999.00 -9999.00 -9999.00 -9999.00 -9999.00 -9999.00 -9999.00 -9999.00 -9999.00 -9999.00 -9999.00 -9999.00 -9999.00 -9999.00 -9999.00 -9999.00 -9999.00 -9999.00 -9999.00 -9999.00 -9999.00 -9999.00 -9999.00 -9999.00 -9999.00 -9999.00 -9999.00 -9999.00 -9999.00 -9999.00 -9999.00 -9999.00 -9999.00 -9999.00 -9999.00 -9999.00 -9999.00 -9999.00 -9999.00 -9999.00 -9999.00 -9999.00 -9999.00 -9999.00 -9999.00 -9999.00 -9999.00 -9999.00 -9999.00 -9999.00 -9999.00 -9999.00 -9999.00 -9999.00 -9999.00 -9999.00 -9999.00 -9999.00 -9999.00 -9999.00 -9999.00 -9999.00 -9999.00 -9999.00 -9999.00 -9999.00 -9999.00 -9999.00 -9999.00 -9999.00 -9999.00 -9999.00 -9999.00 -9999.00 -9999.00 -9999.00 -9999.00 -9999.00 -9999.00 -9999.00 -9999.00 -9999.00 -9999.00 -9999.00 -9999.00 -9999.00 -9999.00 -9999.00 -9999.00 -9999.00 -9999.00 -9999.00 -9999.00 -9999.00 -9999.00 -9999.00 -9999.00 -9999.00 -9999.00 -9999.00 -13.86 -13.78 -13.72 -13.64 -13.54 -13.44 -13.39 -13.27 -13.16 -13.02 -12.96 -12.88 -12.79 -12.70 -12.67 -12.61 -12.52 -12.46 -12.43 -12.41 -12.37 -12.37 -12.36 -12.33 -12.28 -12.27 -12.26 -12.24 -12.21 -12.19 -12.19 -12.16 -12.14 -12.11 -12.07 -12.01 -11.95 -11.94 -11.91 -11.96 -11.99 -11.96 -11.97 -12.01 -11.99 -12.05 -12.04 -12.06 -12.10 -12.13 -12.16 -12.19 -12.22 -12.17 -12.01 -11.99 -11.92 -11.86 -11.79 -11.73 -11.64 -11.61 -11.57 -11.53 -11.49 -11.44 -11.39 -11.34 -11.33 -11.30 -11.25 -11.19 -11.20 -11.12 -11.09 -11.01 -10.95 -10.88 -10.81 -10.75 -10.67 -10.57 -10.47 -10.41 -10.31 -10.26 -10.19 -10.12 -10.03 -9.94 -9.87 -9.80 -9.69 -9.64 -9.60 -9.52 -9.46 -9.43 -9.40 -9.39 -9.33 -9.29 -9.25 -9.21 -9.16 -9.13 -9.09 -9.08 -9.04 -9.01 -9.00 -9.00 -8.96 -8.95 -8.92 -8.90 -8.88 -8.84 -8.78 -8.75 -8.73 -8.66 -8.66 -8.68 -8.65 -8.67 -8.65 -8.62 -8.59 -8.59 -8.55 -8.55 -8.51 -8.46 -8.43 -8.40 -8.38 -8.35 -8.34 -8.28 -8.27 -8.23 -8.21 -8.17 -8.15 -8.10 -8.09 -8.06 -7.98 -7.95 -7.91 -7.85 -7.79 -7.74 -7.69 -7.66 -7.59 -7.56 -7.51 -7.48 -7.46 -7.41 -7.40 -7.37 -7.36 -7.32 -7.29 -7.22 -7.14 -7.10 -7.07 -7.04 -7.00 -6.96 -6.94 -6.92 -6.89 -6.85 -6.85 -6.85 -6.84 -6.83 -6.83 -6.77 -6.69 -6.63 -6.56 -6.55 -6.51 -6.50 -6.51 -6.53 -6.56 -6.58 -6.50 -6.40 -6.36 -6.30 -6.24 -6.16 -6.09 -6.04 -6.01 -5.98 -5.95 -5.93 -5.80 -5.69 -5.64 -5.60 -5.55 -5.51 -5.49 -5.55 -5.55 -5.57 -5.46 -5.47 -5.48 -5.52 -5.54 -5.56 -5.59 -5.58 -5.57 -5.56 -5.55 -5.49 -5.39 -5.32 -5.26 -5.18 -5.12 -5.09 -5.05 -5.01 -4.95 -4.87 -4.80 -4.84 -4.79 -4.78 -4.79 -4.73 -4.71 -4.72 -4.74 -4.78 -4.80 -4.86 -4.89 -4.92 -4.92 -4.90 -4.89 -4.86 -4.82 -4.84 -4.85 -4.86
-9999.00 -9999.00 -9999.00 -9999.00 -9999.00 -9999.00 -9999.00 -9999.00 -9999.00 -9999.00 -9999.00 -9999.00 -9999.00 -9999.00 -9999.00 -9999.00 -9999.00 -9999.00 -9999.00 -9999.00 -9999.00 -9999.00 -9999.00 -9999.00 -9999.00 -9999.00 -9999.00 -9999.00 -9999.00 -9999.00 -9999.00 -9999.00 -9999.00 -9999.00 -9999.00 -9999.00 -9999.00 -9999.00 -9999.00 -9999.00 -9999.00 -9999.00 -9999.00 -9999.00 -9999.00 -9999.00 -9999.00 -9999.00 -9999.00 -9999.00 -9999.00 -9999.00 -9999.00 -9999.00 -9999.00 -9999.00 -9999.00 -9999.00 -9999.00 -9999.00 -9999.00 -9999.00 -9999.00 -9999.00 -9999.00 -9999.00 -9999.00 -9999.00 -9999.00 -9999.00 -9999.00 -9999.00 -9999.00 -9999.00 -9999.00 -9999.00 -9999.00 -9999.00 -9999.00 -9999.00 -9999.00 -9999.00 -9999.00 -9999.00 -9999.00 -9999.00 -9999.00 -9999.00 -9999.00 -9999.00 -9999.00 -9999.00 -9999.00 -9999.00 -9999.00 -9999.00 -9999.00 -9999.00 -9999.00 -9999.00 -9999.00 -9999.00 -9999.00 -9999.00 -9999.00 -9999.00 -9999.00 -9999.00 -9999.00 -9999.00 -9999.00 -9999.00 -9999.00 -13.80 -13.73 -13.69 -13.59 -13.51 -13.41 -13.33 -13.23 -13.13 -13.01 -12.95 -12.88 -12.79 -12.70 -12.67 -12.56 -12.44 -12.39 -12.40 -12.35 -12.33 -12.34 -12.29 -12.28 -12.23 -12.22 -12.20 -12.17 -12.15 -12.12 -12.14 -12.13 -12.13 -12.10 -12.06 -12.01 -11.94 -11.94 -11.87 -11.89 -11.92 -11.89 -11.89 -11.93 -11.91 -11.97 -11.97 -11.99 -12.02 -12.05 -12.09 -12.12 -12.15 -12.16 -12.09 -12.02 -11.95 -11.86 -11.80 -11.73 -11.66 -11.62 -11.57 -11.53 -11.48 -11.43 -11.38 -11.35 -11.28 -11.24 -11.19 -11.12 -11.09 -11.06 -11.00 -10.93 -10.91 -10.85 -10.82 -10.77 -10.65 -10.58 -10.49 -10.39 -10.32 -10.25 -10.15 -10.07 -10.00 -9.92 -9.84 -9.74 -9.67 -9.61 -9.50 -9.45 -9.39 -9.36 -9.39 -9.33 -9.29 -9.23 -9.19 -9.12 -9.12 -9.07 -9.07 -9.03 -9.00 -8.97 -8.96 -8.92 -8.92 -8.91 -8.86 -8.86 -8.81 -8.78 -8.74 -8.72 -8.70 -8.69 -8.67 -8.67 -8.63 -8.60 -8.58 -8.57 -8.56 -8.53 -8.53 -8.51 -8.48 -8.44 -8.40 -8.38 -8.37 -8.33 -8.30 -8.25 -8.26 -8.21 -8.18 -8.14 -8.07 -8.07 -8.03 -7.98 -7.94 -7.91 -7.87 -7.80 -7.74 -7.70 -7.67 -7.61 -7.56 -7.51 -7.50 -7.46 -7.46 -7.43 -7.42 -7.39 -7.40 -7.37 -7.30 -7.23 -7.12 -7.01 -6.98 -6.96 -6.94 -6.91 -6.87 -6.83 -6.81 -6.84 -6.80 -6.79 -6.81 -6.78 -6.77 -6.69 -6.69 -6.62 -6.60 -6.54 -6.53 -6.48 -6.49 -6.50 -6.51 -6.49 -6.50 -6.49 -6.43 -6.37 -6.29 -6.24 -6.19 -6.14 -6.05 -6.02 -5.97 -5.92 -5.87 -5.82 -5.75 -5.70 -5.66 -5.62 -5.57 -5.52 -5.53 -5.52 -5.44 -5.37 -5.29 -5.24 -5.31 -5.36 -5.42 -5.48 -5.48 -5.47 -5.46 -5.46 -5.41 -5.37 -5.32 -5.28 -5.23 -5.19 -5.15 -5.11 -5.06 -5.01 -4.94 -4.86 -4.79 -4.75 -4.75 -4.73 -4.69 -4.65 -4.67 -4.74 -4.75 -4.79 -4.85 -4.91 -4.91 -4.85 -4.79 -4.73 -4.67 -4.61 -4.63 -4.65 -4.66
-9999.00 -9999.00 -9999.00 -9999.00 -9999.00 -9999.00 -9999.00 -9999.00 -9999.00 -9999.00 -9999.00 -9999.00 -9999.00 -9999.00 -9999.00 -9999.00 -9999.00 -9999.00 -9999.00 -9999.00 -9999.00 -9999.00 -9999.00 -9999.00 -9999.00 -9999.00 -9999.00 -9999.00 -9999.00 -9999.00 -9999.00 -9999.00 -9999.00 -9999.00 -9999.00 -9999.00 -9999.00 -9999.00 -9999.00 -9999.00 -9999.00 -9999.00 -9999.00 -9999.00 -9999.00 -9999.00 -9999.00 -9999.00 -9999.00 -9999.00 -9999.00 -9999.00 -9999.00 -9999.00 -9999.00 -9999.00 -9999.00 -9999.00 -9999.00 -9999.00 -9999.00 -9999.00 -9999.00 -9999.00 -9999.00 -9999.00 -9999.00 -9999.00 -9999.00 -9999.00 -9999.00 -9999.00 -9999.00 -9999.00 -9999.00 -9999.00 -9999.00 -9999.00 -9999.00 -9999.00 -9999.00 -9999.00 -9999.00 -9999.00 -9999.00 -9999.00 -9999.00 -9999.00 -9999.00 -9999.00 -9999.00 -9999.00 -9999.00 -9999.00 -9999.00 -9999.00 -9999.00 -9999.00 -9999.00 -9999.00 -9999.00 -9999.00 -9999.00 -9999.00 -9999.00 -9999.00 -9999.00 -9999.00 -9999.00 -9999.00 -9999.00 -9999.00 -13.75 -13.67 -13.65 -13.55 -13.48 -13.38 -13.30 -13.20 -13.11 -12.99 -12.94 -12.87 -12.79 -12.70 -12.68 -12.57 -12.45 -12.45 -12.36 -12.31 -12.27 -12.31 -12.23 -12.20 -12.19 -12.20 -12.15 -12.12 -12.09 -12.08 -12.09 -12.07 -12.08 -12.09 -12.04 -12.01 -11.94 -11.93 -11.87 -11.86 -11.85 -11.82 -11.83 -11.85 -11.84 -11.89 -11.90 -11.91 -11.94 -11.98 -12.01 -12.04 -12.09 -12.10 -12.10 -12.03 -11.96 -11.89 -11.82 -11.74 -11.67 -11.62 -11.57 -11.52 -11.47 -11.42 -11.37 -11.34 -11.28 -11.23 -11.16 -11.07 -11.04 -10.99 -10.96 -10.91 -10.87 -10.83 -10.81 -10.74 -10.63 -10.58 -10.50 -10.41 -10.36 -10.26 -10.16 -10.06 -9.96 -9.89 -9.79 -9.70 -9.65 -9.55 -9.47 -9.45 -9.36 -9.35 -9.35 -9.26 -9.22 -9.17 -9.13 -9.12 -9.06 -9.05 -9.02 -9.00 -8.96 -8.98 -8.85 -8.88 -8.87 -8.82 -8.83 -8.78 -8.74 -8.71 -8.71 -8.69 -8.69 -8.67 -8.63 -8.64 -8.60 -8.57 -8.54 -8.54 -8.52 -8.51 -8.51 -8.49 -8.43 -8.41 -8.37 -8.36 -8.32 -8.31 -8.25 -8.22 -8.21 -8.17 -8.12 -8.06 -8.04 -8.02 -7.98 -7.93 -7.90 -7.88 -7.81 -7.75 -7.71 -7.69 -7.61 -7.55 -7.50 -7.49 -7.46 -7.47 -7.47 -7.44 -7.38 -7.38 -7.34 -7.32 -7.25 -7.21 -7.12 -7.01 -6.93 -6.83 -6.78 -6.74 -6.71 -6.69 -6.72 -6.74 -6.79 -6.78 -6.77 -6.76 -6.73 -6.67 -6.65 -6.61 -6.54 -6.56 -6.52 -6.49 -6.46 -6.43 -6.45 -6.46 -6.43 -6.41 -6.40 -6.40 -6.36 -6.31 -6.26 -6.20 -6.13 -6.10 -6.05 -6.01 -5.97 -5.92 -5.88 -5.82 -5.78 -5.72 -5.69 -5.64 -5.58 -5.53 -5.45 -5.34 -5.24 -5.13 -5.16 -5.21 -5.26 -5.31 -5.35 -5.38 -5.41 -5.42 -5.42 -5.40 -5.38 -5.35 -5.31 -5.27 -5.23 -5.17 -5.11 -5.06 -5.01 -4.95 -4.90 -4.84 -4.82 -4.80 -4.78 -4.72 -4.64 -4.62 -4.67 -4.71 -4.75 -4.80 -4.84 -4.82 -4.75 -4.68 -4.60 -4.52 -4.44 -4.47 -4.49 -4.52
-9999.00 -9999.00 -9999.00 -9999.00 -9999.00 -9999.00 -9999.00 -9999.00 -9999.00 -9999.00 -9999.00 -9999.00 -9999.00 -9999.00 -9999.00 -9999.00 -9999.00 -9999.00 -9999.00 -9999.00 -9999.00 -9999.00 -9999.00 -9999.00 -9999.00 -9999.00 -9999.00 -9999.00 -9999.00 -9999.00 -9999.00 -9999.00 -9999.00 -9999.00 -9999.00 -9999.00 -9999.00 -9999.00 -9999.00 -9999.00 -9999.00 -9999.00 -9999.00 -9999.00 -9999.00 -9999.00 -9999.00 -9999.00 -9999.00 -9999.00 -9999.00 -9999.00 -9999.00 -9999.00 -9999.00 -9999.00 -9999.00 -9999.00 -9999.00 -9999.00 -9999.00 -9999.00 -9999.00 -9999.00 -9999.00 -9999.00 -9999.00 -9999.00 -9999.00 -9999.00 -9999.00 -9999.00 -9999.00 -9999.00 -9999.00 -9999.00 -9999.00 -9999.00 -9999.00 -9999.00 -9999.00 -9999.00 -9999.00 -9999.00 -9999.00 -9999.00 -9999.00 -9999.00 -9999.00 -9999.00 -9999.00 -9999.00 -9999.00 -9999.00 -9999.00 -9999.00 -9999.00 -9999.00 -9999.00 -9999.00 -9999.00 -9999.00 -9999.00 -9999.00 -9999.00 -9999.00 -9999.00 -9999.00 -9999.00 -9999.00 -9999.00 -9999.00 -13.64 -13.61 -13.54 -13.45 -13.35 -13.27 -13.17 -13.08 -12.98 -12.93 -12.87 -12.79 -12.70 -12.68 -12.59 -12.47 -12.45 -12.38 -12.29 -12.29 -12.26 -12.23 -12.15 -12.15 -12.11 -12.08 -12.05 -12.03 -12.03 -12.02 -12.01 -12.03 -12.04 -12.00 -12.00 -11.93 -11.93 -11.87 -11.85 -11.81 -11.76 -11.75 -11.77 -11.76 -11.80 -11.82 -11.84 -11.87 -11.90 -11.93 -11.97 -11.98 -12.01 -12.02 -11.96 -11.90 -11.84 -11.78 -11.72 -11.65 -11.60 -11.56 -11.51 -11.46 -11.41 -11.37 -11.32 -11.30 -11.22 -11.12 -11.06 -11.00 -10.99 -10.91 -10.88 -10.83 -10.80 -10.76 -10.70 -10.65 -10.60 -10.50 -10.40 -10.38 -10.25 -10.15 -10.05 -9.96 -9.84 -9.75 -9.69 -9.61 -9.53 -9.49 -9.42 -9.33 -9.31 -9.28 -9.22 -9.17 -9.13 -9.11 -9.05 -9.05 -9.01 -9.01 -8.95 -8.94 -8.91 -8.88 -8.84 -8.83 -8.80 -8.75 -8.71 -8.67 -8.69 -8.66 -8.65 -8.63 -8.68 -8.65 -8.61 -8.57 -8.55 -8.52 -8.52 -8.53 -8.51 -8.50 -8.45 -8.41 -8.36 -8.37 -8.34 -8.32 -8.26 -8.24 -8.22 -8.19 -8.13 -8.07 -8.03 -8.02 -7.97 -7.93 -7.91 -7.88 -7.83 -7.76 -7.72 -7.71 -7.64 -7.56 -7.50 -7.46 -7.45 -7.47 -7.46 -7.40 -7.37 -7.34 -7.31 -7.26 -7.23 -7.22 -7.11 -7.06 -6.93 -6.80 -6.70 -6.62 -6.57 -6.58 -6.71 -6.73 -6.76 -6.73 -6.78 -6.76 -6.70 -6.69 -6.65 -6.61 -6.58 -6.56 -6.59 -6.46 -6.46 -6.44 -6.42 -6.41 -6.38 -6.36 -6.37 -6.35 -6.33 -6.29 -6.21 -6.19 -6.16 -6.13 -6.07 -6.01 -5.98 -5.94 -5.92 -5.95 -5.94 -5.89 -5.84 -5.77 -5.72 -5.66 -5.63 -5.57 -5.46 -5.36 -5.29 -5.14 -5.14 -5.15 -5.15 -5.17 -5.21 -5.26 -5.29 -5.31 -5.31 -5.29 -5.27 -5.25 -5.21 -5.17 -5.14 -5.11 -5.09 -5.08 -5.04 -4.99 -4.95 -4.90 -4.85 -4.76 -4.67 -4.58 -4.50 -4.43 -4.53 -4.62 -4.69 -4.77 -4.83 -4.79 -4.70 -4.61 -4.52 -4.43 -4.34 -4.37 -4.39 -4.41
-9999.00 -9999.00 -9999.00 -9999.00 -9999.00 -9999.00 -9999.00 -9999.00 -9999.00 -9999.00 -9999.00 -9999.00 -9999.00 -9999.00 -9999.00 -9999.00 -9999.00 -9999.00 -9999.00 -9999.00 -9999.00 -9999.00 -9999.00 -9999.00 -9999.00 -9999.00 -9999.00 -9999.00 -9999.00 -9999.00 -9999.00 -9999.00 -9999.00 -9999.00 -9999.00 -9999.00 -9999.00 -9999.00 -9999.00 -9999.00 -9999.00 -9999.00 -9999.00 -9999.00 -9999.00 -9999.00 -9999.00 -9999.00 -9999.00 -9999.00 -9999.00 -9999.00 -9999.00 -9999.00 -9999.00 -9999.00 -9999.00 -9999.00 -9999.00 -9999.00 -9999.00 -9999.00 -9999.00 -9999.00 -9999.00 -9999.00 -9999.00 -9999.00 -9999.00 -9999.00 -9999.00 -9999.00 -9999.00 -9999.00 -9999.00 -9999.00 -9999.00 -9999.00 -9999.00 -9999.00 -9999.00 -9999.00 -9999.00 -9999.00 -9999.00 -9999.00 -9999.00 -9999.00 -9999.00 -9999.00 -9999.00 -9999.00 -9999.00 -9999.00 -9999.00 -9999.00 -9999.00 -9999.00 -9999.00 -9999.00 -9999.00 -9999.00 -9999.00 -9999.00 -9999.00 -9999.00 -9999.00 -9999.00 -9999.00 -9999.00 -9999.00 -13.62 -13.59 -13.51 -13.41 -13.32 -13.26 -13.15 -13.06 -12.98 -12.92 -12.87 -12.79 -12.71 -12.68 -12.60 -12.48 -12.46 -12.38 -12.30 -12.25 -12.18 -12.16 -12.11 -12.13 -12.07 -12.01 -11.99 -11.94 -11.98 -11.97 -11.96 -11.97 -11.97 -11.95 -11.96 -11.92 -11.91 -11.88 -11.85 -11.81 -11.75 -11.76 -11.72 -11.69 -11.72 -11.74 -11.76 -11.79 -11.83 -11.86 -11.87 -11.90 -11.90 -11.87 -11.81 -11.81 -11.79 -11.74 -11.66 -11.63 -11.58 -11.54 -11.50 -11.45 -11.39 -11.37 -11.31 -11.30 -11.22 -11.12 -11.07 -11.03 -10.93 -10.88 -10.85 -10.80 -10.76 -10.70 -10.64 -10.61 -10.54 -10.49 -10.47 -10.37 -10.23 -10.15 -10.04 -9.96 -9.83 -9.74 -9.66 -9.59 -9.52 -9.46 -9.41 -9.37 -9.29 -9.25 -9.19 -9.13 -9.10 -9.05 -9.04 -9.01 -8.99 -8.95 -8.92 -8.91 -8.89 -8.83 -8.82 -8.76 -8.73 -8.70 -8.64 -8.64 -8.61 -8.61 -8.59 -8.63 -8.62 -8.57 -8.59 -8.55 -8.54 -8.52 -8.51 -8.50 -8.48 -8.47 -8.40 -8.38 -8.37 -8.35 -8.33 -8.27 -8.25 -8.21 -8.19 -8.19 -8.13 -8.06 -8.04 -7.97 -7.95 -7.92 -7.88 -7.84 -7.78 -7.73 -7.72 -7.66 -7.58 -7.55 -7.50 -7.48 -7.45 -7.45 -7.43 -7.40 -7.33 -7.28 -7.24 -7.24 -7.21 -7.13 -7.09 -6.95 -6.84 -6.69 -6.62 -6.49 -6.53 -6.64 -6.72 -6.69 -6.71 -6.72 -6.72 -6.72 -6.69 -6.66 -6.63 -6.61 -6.58 -6.56 -6.53 -6.62 -6.50 -6.48 -6.47 -6.43 -6.37 -6.33 -6.32 -6.31 -6.30 -6.24 -6.15 -6.09 -6.09 -6.07 -6.01 -6.01 -5.93 -5.90 -5.92 -5.94 -5.97 -5.97 -5.84 -5.81 -5.78 -5.75 -5.72 -5.69 -5.67 -5.56 -5.41 -5.28 -5.16 -5.11 -5.09 -5.06 -5.04 -5.07 -5.06 -5.05 -5.07 -5.10 -5.15 -5.12 -5.09 -5.06 -5.03 -5.00 -4.98 -4.98 -4.97 -4.97 -4.96 -4.96 -4.99 -4.88 -4.77 -4.67 -4.56 -4.47 -4.48 -4.56 -4.63 -4.69 -4.76 -4.82 -4.77 -4.69 -4.61 -4.54 -4.46 -4.37 -4.36 -4.37 -4.37
-9999.00 -9999.00 -9999.00 -9999.00 -9999.00 -9999.00 -9999.00 -9999.00 -9999.00 -9999.00 -9999.00 -9999.00 -9999.00 -9999.00 -9999.00 -9999.00 -9999.00 -9999.00 -9999.00 -9999.00 -9999.00 -9999.00 -9999.00 -9999.00 -9999.00 -9999.00 -9999.00 -9999.00 -9999.00 -9999.00 -9999.00 -9999.00 -9999.00 -9999.00 -9999.00 -9999.00 -9999.00 -9999.00 -9999.00 -9999.00 -9999.00 -9999.00 -9999.00 -9999.00 -9999.00 -9999.00 -9999.00 -9999.00 -9999.00 -9999.00 -9999.00 -9999.00 -9999.00 -9999.00 -9999.00 -9999.00 -9999.00 -9999.00 -9999.00 -9999.00 -9999.00 -9999.00 -9999.00 -9999.00 -9999.00 -9999.00 -9999.00 -9999.00 -9999.00 -9999.00 -9999.00 -9999.00 -9999.00 -9999.00 -9999.00 -9999.00 -9999.00 -9999.00 -9999.00 -9999.00 -9999.00 -9999.00 -9999.00 -9999.00 -9999.00 -9999.00 -9999.00 -9999.00 -9999.00 -9999.00 -9999.00 -9999.00 -9999.00 -9999.00 -9999.00 -9999.00 -9999.00 -9999.00 -9999.00 -9999.00 -9999.00 -9999.00 -9999.00 -9999.00 -9999.00 -9999.00 -9999.00 -9999.00 -9999.00 -9999.00 -9999.00 -13.54 -13.48 -13.38 -13.29 -13.23 -13.13 -13.05 -12.97 -12.91 -12.86 -12.79 -12.72 -12.69 -12.61 -12.49 -12.46 -12.37 -12.31 -12.26 -12.16 -12.16 -12.11 -12.02 -11.99 -11.95 -11.95 -11.91 -11.93 -11.90 -11.89 -11.92 -11.92 -11.90 -11.92 -11.89 -11.88 -11.86 -11.83 -11.80 -11.76 -11.76 -11.72 -11.68 -11.66 -11.66 -11.69 -11.71 -11.74 -11.75 -11.78 -11.80 -11.78 -11.76 -11.75 -11.72 -11.71 -11.70 -11.65 -11.62 -11.59 -11.52 -11.48 -11.43 -11.40 -11.37 -11.31 -11.30 -11.19 -11.15 -11.11 -11.02 -10.96 -10.90 -10.80 -10.77 -10.71 -10.68 -10.64 -10.58 -10.52 -10.45 -10.44 -10.35 -10.24 -10.13 -10.05 -9.92 -9.82 -9.72 -9.65 -9.56 -9.49 -9.43 -9.37 -9.33 -9.28 -9.24 -9.17 -9.11 -9.07 -9.04 -9.00 -8.98 -8.95 -8.93 -8.91 -8.89 -8.82 -8.81 -8.75 -8.71 -8.69 -8.63 -8.61 -8.58 -8.57 -8.55 -8.56 -8.55 -8.51 -8.52 -8.53 -8.54 -8.51 -8.49 -8.49 -8.46 -8.42 -8.40 -8.38 -8.38 -8.35 -8.34 -8.28 -8.27 -8.22 -8.20 -8.24 -8.19 -8.13 -8.10 -8.05 -7.97 -7.94 -7.88 -7.85 -7.83 -7.76 -7.74 -7.67 -7.61 -7.56 -7.53 -7.50 -7.48 -7.47 -7.46 -7.40 -7.37 -7.31 -7.27 -7.25 -7.23 -7.15 -7.14 -7.02 -6.93 -6.79 -6.68 -6.50 -6.45 -6.53 -6.59 -6.66 -6.69 -6.68 -6.66 -6.67 -6.68 -6.72 -6.74 -6.70 -6.66 -6.64 -6.58 -6.55 -6.53 -6.50 -6.51 -6.49 -6.45 -6.36 -6.33 -6.33 -6.31 -6.24 -6.19 -6.13 -6.04 -5.91 -5.97 -5.99 -5.94 -5.88 -5.91 -5.91 -5.88 -5.91 -5.92 -5.88 -5.86 -5.84 -5.81 -5.79 -5.77 -5.74 -5.71 -5.56 -5.42 -5.25 -5.15 -5.12 -5.09 -5.04 -5.02 -5.06 -5.04 -5.02 -5.08 -5.08 -5.05 -4.99 -4.96 -4.95 -4.93 -4.87 -4.86 -4.85 -4.86 -4.87 -4.88 -4.92 -4.97 -4.86 -4.77 -4.68 -4.61 -4.56 -4.59 -4.63 -4.67 -4.71 -4.77 -4.82 -4.75 -4.65 -4.56 -4.47 -4.37 -4.30 -4.30 -4.32 -4.30
-9999.00 -9999.00 -9999.00 -9999.00 -9999.00 -9999.00 -9999.00 -9999.00 -9999.00 -9999.00 -9999.00 -9999.00 -9999.00 -9999.00 -9999.00 -9999.00 -9999.00 -9999.00 -9999.00 -9999.00 -9999.00 -9999.00 -9999.00 -9999.00 -9999.00 -9999.00 -9999.00 -9999.00 -9999.00 -9999.00 -9999.00 -9999.00 -9999.00 -9999.00 -9999.00 -9999.00 -9999.00 -9999.00 -9999.00 -9999.00 -9999.00 -9999.00 -9999.00 -9999.00 -9999.00 -9999.00 -9999.00 -9999.00 -9999.00 -9999.00 -9999.00 -9999.00 -9999.00 -9999.00 -9999.00 -9999.00 -9999.00 -9999.00 -9999.00 -9999.00 -9999.00 -9999.00 -9999.00 -9999.00 -9999.00 -9999.00 -9999.00 -9999.00 -9999.00 -9999.00 -9999.00 -9999.00 -9999.00 -9999.00 -9999.00 -9999.00 -9999.00 -9999.00 -9999.00 -9999.00 -9999.00 -9999.00 -9999.00 -9999.00 -9999.00 -9999.00 -9999.00 -9999.00 -9999.00 -9999.00 -9999.00 -9999.00 -9999.00 -9999.00 -9999.00 -9999.00 -9999.00 -9999.00 -9999.00 -9999.00 -9999.00 -9999.00 -9999.00 -9999.00 -9999.00 -9999.00 -9999.00 -9999.00 -9999.00 -9999.00 -13.52 -13.44 -13.35 -13.27 -13.22 -13.12 -13.03 -12.96 -12.91 -12.86 -12.79 -12.73 -12.69 -12.61 -12.51 -12.47 -12.38 -12.31 -12.27 -12.18 -12.14 -12.12 -12.01 -11.90 -11.90 -11.87 -11.87 -11.87 -11.83 -11.81 -11.86 -11.86 -11.84 -11.87 -11.85 -11.84 -11.83 -11.80 -11.78 -11.76 -11.75 -11.71 -11.69 -11.66 -11.63 -11.61 -11.62 -11.64 -11.67 -11.70 -11.70 -11.68 -11.67 -11.70 -11.66 -11.65 -11.64 -11.69 -11.64 -11.57 -11.51 -11.46 -11.42 -11.36 -11.34 -11.34 -11.27 -11.22 -11.19 -11.09 -11.03 -10.96 -10.91 -10.85 -10.74 -10.67 -10.64 -10.58 -10.52 -10.45 -10.41 -10.38 -10.29 -10.20 -10.11 -10.05 -9.92 -9.80 -9.71 -9.63 -9.57 -9.47 -9.43 -9.36 -9.31 -9.27 -9.22 -9.16 -9.12 -9.06 -8.98 -8.97 -8.95 -8.93 -8.89 -8.88 -8.83 -8.79 -8.75 -8.70 -8.68 -8.63 -8.57 -8.55 -8.53 -8.54 -8.50 -8.48 -8.45 -8.46 -8.47 -8.48 -8.48 -8.46 -8.47 -8.46 -8.41 -8.40 -8.36 -8.37 -8.33 -8.35 -8.31 -8.29 -8.26 -8.22 -8.24 -8.23 -8.20 -8.14 -8.09 -8.02 -8.00 -7.91 -7.88 -7.87 -7.81 -7.80 -7.74 -7.67 -7.60 -7.54 -7.52 -7.49 -7.48 -7.46 -7.43 -7.36 -7.29 -7.31 -7.27 -7.24 -7.18 -7.19 -7.13 -7.03 -6.91 -6.81 -6.60 -6.52 -6.42 -6.55 -6.60 -6.64 -6.62 -6.60 -6.64 -6.67 -6.67 -6.70 -6.73 -6.74 -6.72 -6.66 -6.60 -6.56 -6.53 -6.49 -6.45 -6.43 -6.39 -6.36 -6.33 -6.30 -6.26 -6.21 -6.13 -6.04 -5.98 -5.92 -5.88 -5.87 -5.83 -5.84 -5.82 -5.80 -5.80 -5.76 -5.80 -5.85 -5.84 -5.84 -5.81 -5.77 -5.76 -5.70 -5.68 -5.74 -5.60 -5.49 -5.39 -5.23 -5.16 -5.11 -5.10 -5.05 -4.98 -4.97 -4.97 -4.95 -4.92 -4.97 -4.95 -4.88 -4.84 -4.82 -4.79 -4.77 -4.79 -4.83 -4.83 -4.88 -4.92 -4.91 -4.88 -4.80 -4.71 -4.61 -4.53 -4.53 -4.57 -4.61 -4.66 -4.70 -4.74 -4.66 -4.56 -4.45 -4.36 -4.26 -4.21 -4.21 -4.21 -4.21
-9999.00 -9999.00 -9999.00 -9999.00 -9999.00 -9999.00 -9999.00 -9999.00 -9999.00 -9999.00 -9999.00 -9999.00 -9999.00 -9999.00 -9999.00 -9999.00 -9999.00 -9999.00 -9999.00 -9999.00 -9999.00 -9999.00 -9999.00 -9999.00 -9999.00 -9999.00 -9999.00 -9999.00 -9999.00 -9999.00 -9999.00 -9999.00 -9999.00 -9999.00 -9999.00 -9999.00 -9999.00 -9999.00 -9999.00 -9999.00 -9999.00 -9999.00 -9999.00 -9999.00 -9999.00 -9999.00 -9999.00 -9999.00 -9999.00 -9999.00 -9999.00 -9999.00 -9999.00 -9999.00 -9999.00 -9999.00 -9999.00 -9999.00 -9999.00 -9999.00 -9999.00 -9999.00 -9999.00 -9999.00 -9999.00 -9999.00 -9999.00 -9999.00 -9999.00 -9999.00 -9999.00 -9999.00 -9999.00 -9999.00 -9999.00 -9999.00 -9999.00 -9999.00 -9999.00 -9999.00 -9999.00 -9999.00 -9999.00 -9999.00 -9999.00 -9999.00 -9999.00 -9999.00 -9999.00 -9999.00 -9999.00 -9999.00 -9999.00 -9999.00 -9999.00 -9999.00 -9999.00 -9999.00 -9999.00 -9999.00 -9999.00 -9999.00 -9999.00 -9999.00 -9999.00 -9999.00 -9999.00 -9999.00 -9999.00 -9999.00 -13.42 -13.33 -13.25 -13.21 -13.12 -13.04 -12.95 -12.90 -12.86 -12.79 -12.74 -12.70 -12.59 -12.54 -12.47 -12.39 -12.32 -12.28 -12.20 -12.13 -12.12 -12.02 -11.92 -11.89 -11.84 -11.81 -11.81 -11.77 -11.75 -11.80 -11.81 -11.79 -11.83 -11.81 -11.80 -11.80 -11.77 -11.74 -11.74 -11.73 -11.70 -11.68 -11.65 -11.64 -11.62 -11.60 -11.58 -11.60 -11.61 -11.60 -11.59 -11.63 -11.59 -11.63 -11.59 -11.57 -11.61 -11.58 -11.53 -11.49 -11.43 -11.38 -11.35 -11.33 -11.31 -11.28 -11.26 -11.17 -11.11 -11.06 -11.01 -10.94 -10.85 -10.76 -10.70 -10.63 -10.54 -10.47 -10.41 -10.36 -10.32 -10.22 -10.15 -10.07 -9.96 -9.91 -9.79 -9.70 -9.63 -9.53 -9.48 -9.40 -9.38 -9.29 -9.26 -9.22 -9.16 -9.11 -9.04 -8.99 -8.98 -8.91 -8.89 -8.87 -8.82 -8.80 -8.75 -8.68 -8.67 -8.60 -8.57 -8.53 -8.49 -8.47 -8.47 -8.46 -8.42 -8.42 -8.43 -8.40 -8.39 -8.37 -8.41 -8.42 -8.42 -8.39 -8.35 -8.35 -8.33 -8.32 -8.32 -8.32 -8.30 -8.24 -8.25 -8.24 -8.23 -8.17 -8.13 -8.08 -8.06 -7.98 -7.94 -7.90 -7.88 -7.85 -7.81 -7.76 -7.70 -7.61 -7.53 -7.49 -7.47 -7.48 -7.43 -7.38 -7.35 -7.33 -7.34 -7.31 -7.24 -7.22 -7.19 -7.16 -7.04 -6.93 -6.83 -6.72 -6.69 -6.67 -6.63 -6.62 -6.62 -6.61 -6.61 -6.61 -6.62 -6.59 -6.64 -6.64 -6.66 -6.72 -6.66 -6.62 -6.57 -6.51 -6.47 -6.43 -6.39 -6.32 -6.29 -6.26 -6.23 -6.20 -6.17 -6.14 -6.08 -6.02 -5.92 -5.85 -5.78 -5.78 -5.79 -5.75 -5.76 -5.68 -5.66 -5.68 -5.76 -5.81 -5.80 -5.84 -5.79 -5.74 -5.74 -5.72 -5.69 -5.66 -5.55 -5.44 -5.37 -5.27 -5.19 -5.13 -5.05 -4.97 -4.91 -4.90 -4.91 -4.88 -4.85 -4.82 -4.84 -4.80 -4.76 -4.74 -4.72 -4.78 -4.80 -4.81 -4.83 -4.84 -4.85 -4.86 -4.87 -4.76 -4.68 -4.59 -4.52 -4.53 -4.56 -4.58 -4.60 -4.63 -4.66 -4.55 -4.39 -4.23 -4.06 -3.90 -3.94 -3.97 -4.00 -4.03
-9999.00 -9999.00 -9999.00 -9999.00 -9999.00 -9999.00 -9999.00 -9999.00 -9999.00 -9999.00 -9999.00 -9999.00 -9999.00 -9999.00 -9999.00 -9999.00 -9999.00 -9999.00 -9999.00 -9999.00 -9999.00 -9999.00 -9999.00 -9999.00 -9999.00 -9999.00 -9999.00 -9999.00 -9999.00 -9999.00 -9999.00 -9999.00 -9999.00 -9999.00 -9999.00 -9999.00 -9999.00 -9999.00 -9999.00 -9999.00 -9999.00 -9999.00 -9999.00 -9999.00 -9999.00 -9999.00 -9999.00 -9999.00 -9999.00 -9999.00 -9999.00 -9999.00 -9999.00 -9999.00 -9999.00 -9999.00 -9999.00 -9999.00 -9999.00 -9999.00 -9999.00 -9999.00 -9999.00 -9999.00 -9999.00 -9999.00 -9999.00 -9999.00 -9999.00 -9999.00 -9999.00 -9999.00 -9999.00 -9999.00 -9999.00 -9999.00 -9999.00 -9999.00 -9999.00 -9999.00 -9999.00 -9999.00 -9999.00 -9999.00 -9999.00 -9999.00 -9999.00 -9999.00 -9999.00 -9999.00 -9999.00 -9999.00 -9999.00 -9999.00 -9999.00 -9999.00 -9999.00 -9999.00 -9999.00 -9999.00 -9999.00 -9999.00 -9999.00 -9999.00 -9999.00 -9999.00 -9999.00 -9999.00 -9999.00 -13.40 -13.30 -13.24 -13.19 -13.11 -13.05 -12.98 -12.92 -12.85 -12.79 -12.74 -12.70 -12.59 -12.54 -12.48 -12.41 -12.33 -12.29 -12.22 -12.13 -12.12 -12.04 -11.93 -11.90 -11.84 -11.78 -11.76 -11.70 -11.69 -11.74 -11.75 -11.74 -11.77 -11.76 -11.77 -11.77 -11.74 -11.72 -11.72 -11.70 -11.70 -11.66 -11.64 -11.63 -11.60 -11.58 -11.57 -11.54 -11.52 -11.51 -11.55 -11.56 -11.56 -11.54 -11.54 -11.58 -11.61 -11.52 -11.50 -11.47 -11.40 -11.36 -11.34 -11.32 -11.27 -11.33 -11.27 -11.17 -11.14 -11.06 -11.03 -10.95 -10.87 -10.80 -10.72 -10.63 -10.50 -10.42 -10.37 -10.30 -10.26 -10.19 -10.12 -10.04 -9.93 -9.87 -9.75 -9.70 -9.60 -9.51 -9.46 -9.39 -9.35 -9.28 -9.26 -9.21 -9.16 -9.11 -9.03 -8.99 -8.96 -8.94 -8.84 -8.78 -8.80 -8.76 -8.68 -8.68 -8.62 -8.58 -8.51 -8.48 -8.42 -8.41 -8.40 -8.39 -8.35 -8.31 -8.31 -8.29 -8.28 -8.33 -8.35 -8.36 -8.33 -8.32 -8.33 -8.31 -8.29 -8.27 -8.25 -8.25 -8.26 -8.26 -8.24 -8.23 -8.21 -8.20 -8.14 -8.12 -8.04 -7.99 -7.94 -7.91 -7.86 -7.85 -7.81 -7.81 -7.73 -7.67 -7.57 -7.52 -7.50 -7.44 -7.41 -7.39 -7.37 -7.36 -7.32 -7.28 -7.24 -7.24 -7.17 -7.12 -7.11 -7.03 -6.96 -6.91 -6.83 -6.76 -6.73 -6.66 -6.59 -6.58 -6.56 -6.52 -6.54 -6.50 -6.50 -6.52 -6.52 -6.55 -6.60 -6.61 -6.54 -6.50 -6.46 -6.40 -6.35 -6.32 -6.28 -6.22 -6.18 -6.14 -6.11 -6.08 -6.05 -5.96 -5.91 -5.85 -5.82 -5.76 -5.71 -5.71 -5.65 -5.66 -5.62 -5.66 -5.71 -5.75 -5.74 -5.76 -5.75 -5.78 -5.74 -5.71 -5.65 -5.62 -5.61 -5.56 -5.45 -5.37 -5.30 -5.20 -5.14 -5.05 -4.95 -4.89 -4.86 -4.83 -4.80 -4.77 -4.74 -4.71 -4.69 -4.67 -4.65 -4.62 -4.67 -4.69 -4.70 -4.72 -4.73 -4.73 -4.80 -4.81 -4.73 -4.64 -4.58 -4.51 -4.48 -4.49 -4.49 -4.49 -4.49 -4.49 -4.39 -4.24 -4.09 -3.94 -3.79 -3.71 -3.77 -3.83 -3.89
-9999.00 -9999.00 -9999.00 -9999.00 -9999.00 -9999.00 -9999.00 -9999.00 -9999.00 -9999.00 -9999.00 -9999.00 -9999.00 -9999.00 -9999.00 -9999.00 -9999.00 -9999.00 -9999.00 -9999.00 -9999.00 -9999.00 -9999.00 -9999.00 -9999.00 -9999.00 -9999.00 -9999.00 -9999.00 -9999.00 -9999.00 -9999.00 -9999.00 -9999.00 -9999.00 -9999.00 -9999.00 -9999.00 -9999.00 -9999.00 -9999.00 -9999.00 -9999.00 -9999.00 -9999.00 -9999.00 -9999.00 -9999.00 -9999.00 -9999.00 -9999.00 -9999.00 -9999.00 -9999.00 -9999.00 -9999.00 -9999.00 -9999.00 -9999.00 -9999.00 -9999.00 -9999.00 -9999.00 -9999.00 -9999.00 -9999.00 -9999.00 -9999.00 -9999.00 -9999.00 -9999.00 -9999.00 -9999.00 -9999.00 -9999.00 -9999.00 -9999.00 -9999.00 -9999.00 -9999.00 -9999.00 -9999.00 -9999.00 -9999.00 -9999.00 -9999.00 -9999.00 -9999.00 -9999.00 -9999.00 -9999.00 -9999.00 -9999.00 -9999.00 -9999.00 -9999.00 -9999.00 -9999.00 -9999.00 -9999.00 -9999.00 -9999.00 -9999.00 -9999.00 -9999.00 -9999.00 -9999.00 -9999.00 -9999.00 -13.27 -13.23 -13.18 -13.11 -13.05 -13.00 -12.95 -12.89 -12.81 -12.76 -12.70 -12.59 -12.55 -12.48 -12.40 -12.33 -12.30 -12.25 -12.18 -12.12 -12.05 -11.94 -11.90 -11.84 -11.80 -11.76 -11.69 -11.64 -11.67 -11.69 -11.69 -11.73 -11.72 -11.74 -11.74 -11.71 -11.70 -11.68 -11.65 -11.66 -11.64 -11.65 -11.63 -11.61 -11.60 -11.58 -11.54 -11.50 -11.48 -11.50 -11.49 -11.53 -11.48 -11.49 -11.52 -11.49 -11.48 -11.46 -11.42 -11.40 -11.36 -11.34 -11.31 -11.29 -11.23 -11.22 -11.18 -11.12 -11.12 -11.06 -10.96 -10.90 -10.79 -10.73 -10.65 -10.51 -10.43 -10.36 -10.25 -10.19 -10.16 -10.07 -10.00 -9.92 -9.82 -9.74 -9.66 -9.56 -9.50 -9.44 -9.38 -9.31 -9.27 -9.25 -9.19 -9.16 -9.09 -9.02 -9.00 -8.91 -8.89 -8.83 -8.78 -8.73 -8.70 -8.68 -8.62 -8.60 -8.53 -8.50 -8.45 -8.37 -8.33 -8.33 -8.32 -8.28 -8.28 -8.23 -8.15 -8.21 -8.27 -8.30 -8.24 -8.23 -8.27 -8.26 -8.26 -8.22 -8.21 -8.19 -8.18 -8.18 -8.23 -8.24 -8.25 -8.25 -8.20 -8.16 -8.08 -8.05 -7.98 -7.94 -7.87 -7.86 -7.82 -7.77 -7.77 -7.78 -7.72 -7.62 -7.58 -7.51 -7.45 -7.42 -7.41 -7.39 -7.35 -7.28 -7.27 -7.21 -7.17 -7.15 -7.14 -7.09 -7.11 -7.05 -6.96 -6.90 -6.83 -6.77 -6.71 -6.62 -6.55 -6.54 -6.51 -6.51 -6.45 -6.36 -6.33 -6.40 -6.42 -6.43 -6.46 -6.49 -6.49 -6.43 -6.39 -6.35 -6.32 -6.27 -6.22 -6.17 -6.12 -6.06 -6.01 -5.96 -5.88 -5.82 -5.78 -5.74 -5.68 -5.68 -5.63 -5.60 -5.57 -5.60 -5.64 -5.63 -5.67 -5.68 -5.68 -5.70 -5.71 -5.70 -5.64 -5.65 -5.60 -5.59 -5.59 -5.54 -5.45 -5.37 -5.28 -5.19 -5.13 -5.07 -5.01 -4.92 -4.89 -4.86 -4.83 -4.80 -4.76 -4.73 -4.70 -4.69 -4.67 -4.63 -4.57 -4.58 -4.58 -4.64 -4.67 -4.65 -4.71 -4.67 -4.64 -4.60 -4.54 -4.47 -4.46 -4.45 -4.44 -4.43 -4.42 -4.41 -4.31 -4.15 -3.99 -3.82 -3.66 -3.64 -3.71 -3.78 -3.82
-9999.00 -9999.00 -9999.00 -9999.00 -9999.00 -9999.00 -9999.00 -9999.00 -9999.00 -9999.00 -9999.00 -9999.00 -9999.00 -9999.00 -9999.00 -9999.00 -9999.00 -9999.00 -9999.00 -9999.00 -9999.00 -9999.00 -9999.00 -9999.00 -9999.00 -9999.00 -9999.00 -9999.00 -9999.00 -9999.00 -9999.00 -9999.00 -9999.00 -9999.00 -9999.00 -9999.00 -9999.00 -9999.00 -9999.00 -9999.00 -9999.00 -9999.00 -9999.00 -9999.00 -9999.00 -9999.00 -9999.00 -9999.00 -9999.00 -9999.00 -9999.00 -9999.00 -9999.00 -9999.00 -9999.00 -9999.00 -9999.00 -9999.00 -9999.00 -9999.00 -9999.00 -9999.00 -9999.00 -9999.00 -9999.00 -9999.00 -9999.00 -9999.00 -9999.00 -9999.00 -9999.00 -9999.00 -9999.00 -9999.00 -9999.00 -9999.00 -9999.00 -9999.00 -9999.00 -9999.00 -9999.00 -9999.00 -9999.00 -9999.00 -9999.00 -9999.00 -9999.00 -9999.00 -9999.00 -9999.00 -9999.00 -9999.00 -9999.00 -9999.00 -9999.00 -9999.00 -9999.00 -9999.00 -9999.00 -9999.00 -9999.00 -9999.00 -9999.00 -9999.00 -9999.00 -9999.00 -9999.00 -9999.00 -9999.00 -13.21 -13.17 -13.09 -13.06 -13.04 -12.98 -12.92 -12.84 -12.78 -12.72 -12.61 -12.57 -12.49 -12.41 -12.34 -12.31 -12.27 -12.20 -12.11 -12.05 -11.96 -11.91 -11.85 -11.82 -11.76 -11.69 -11.65 -11.66 -11.61 -11.65 -11.69 -11.68 -11.71 -11.71 -11.69 -11.68 -11.64 -11.65 -11.62 -11.61 -11.63 -11.62 -11.59 -11.59 -11.57 -11.54 -11.50 -11.49 -11.47 -11.46 -11.46 -11.43 -11.46 -11.48 -11.44 -11.45 -11.43 -11.38 -11.38 -11.35 -11.31 -11.30 -11.26 -11.21 -11.18 -11.16 -11.13 -11.10 -11.06 -10.99 -10.95 -10.81 -10.75 -10.63 -10.54 -10.44 -10.35 -10.26 -10.19 -10.11 -10.04 -9.97 -9.87 -9.81 -9.73 -9.64 -9.54 -9.46 -9.42 -9.35 -9.28 -9.25 -9.21 -9.16 -9.10 -9.09 -9.02 -8.96 -8.92 -8.88 -8.81 -8.78 -8.71 -8.66 -8.64 -8.63 -8.56 -8.52 -8.47 -8.39 -8.36 -8.28 -8.27 -8.27 -8.26 -8.21 -8.20 -8.12 -8.21 -8.23 -8.16 -8.14 -8.18 -8.19 -8.19 -8.16 -8.17 -8.13 -8.10 -8.05 -8.12 -8.15 -8.18 -8.23 -8.27 -8.22 -8.11 -8.05 -8.04 -7.99 -7.90 -7.88 -7.84 -7.78 -7.75 -7.76 -7.76 -7.68 -7.67 -7.63 -7.55 -7.47 -7.44 -7.41 -7.38 -7.34 -7.29 -7.23 -7.19 -7.16 -7.05 -7.11 -7.09 -7.07 -7.00 -7.01 -6.95 -6.87 -6.82 -6.74 -6.68 -6.61 -6.59 -6.54 -6.48 -6.46 -6.38 -6.29 -6.23 -6.25 -6.29 -6.37 -6.39 -6.40 -6.38 -6.35 -6.28 -6.25 -6.24 -6.19 -6.14 -6.07 -6.01 -5.94 -5.92 -5.87 -5.81 -5.76 -5.72 -5.68 -5.61 -5.58 -5.54 -5.53 -5.58 -5.50 -5.57 -5.54 -5.48 -5.49 -5.57 -5.59 -5.59 -5.63 -5.64 -5.58 -5.54 -5.51 -5.47 -5.47 -5.38 -5.29 -5.22 -5.18 -5.11 -5.05 -4.98 -4.91 -4.88 -4.85 -4.82 -4.77 -4.72 -4.69 -4.69 -4.65 -4.59 -4.53 -4.47 -4.48 -4.48 -4.51 -4.55 -4.57 -4.64 -4.67 -4.75 -4.59 -4.45 -4.30 -4.24 -4.25 -4.26 -4.26 -4.27 -4.28 -4.21 -4.05 -3.89 -3.74 -3.59 -3.59 -3.65 -3.70 -3.73
-9999.00 -9999.00 -9999.00 -9999.00 -9999.00 -9999.00 -9999.00 -9999.00 -9999.00 -9999.00 -9999.00 -9999.00 -9999.00 -9999.00 -9999.00 -9999.00 -9999.00 -9999.00 -9999.00 -9999.00 -9999.00 -9999.00 -9999.00 -9999.00 -9999.00 -9999.00 -9999.00 -9999.00 -9999.00 -9999.00 -9999.00 -9999.00 -9999.00 -9999.00 -9999.00 -9999.00 -9999.00 -9999.00 -9999.00 -9999.00 -9999.00 -9999.00 -9999.00 -9999.00 -9999.00 -9999.00 -9999.00 -9999.00 -9999.00 -9999.00 -9999.00 -9999.00 -9999.00 -9999.00 -9999.00 -9999.00 -9999.00 -9999.00 -9999.00 -9999.00 -9999.00 -9999.00 -9999.00 -9999.00 -9999.00 -9999.00 -9999.00 -9999.00 -9999.00 -9999.00 -9999.00 -9999.00 -9999.00 -9999.00 -9999.00 -9999.00 -9999.00 -9999.00 -9999.00 -9999.00 -9999.00 -9999.00 -9999.00 -9999.00 -9999.00 -9999.00 -9999.00 -9999.00 -9999.00 -9999.00 -9999.00 -9999.00 -9999.00 -9999.00 -9999.00 -9999.00 -9999.00 -9999.00 -9999.00 -9999.00 -9999.00 -9999.00 -9999.00 -9999.00 -9999.00 -9999.00 -9999.00 -9999.00 -13.19 -13.16 -13.10 -13.09 -13.06 -13.00 -12.94 -12.87 -12.80 -12.74 -12.67 -12.58 -12.49 -12.43 -12.35 -12.32 -12.27 -12.19 -12.13 -12.04 -11.97 -11.92 -11.87 -11.83 -11.76 -11.70 -11.66 -11.65 -11.60 -11.62 -11.66 -11.63 -11.68 -11.69 -11.66 -11.64 -11.61 -11.62 -11.58 -11.60 -11.61 -11.58 -11.58 -11.58 -11.57 -11.54 -11.50 -11.49 -11.46 -11.46 -11.41 -11.39 -11.41 -11.41 -11.39 -11.41 -11.40 -11.36 -11.36 -11.32 -11.30 -11.27 -11.22 -11.18 -11.16 -11.11 -11.09 -11.07 -11.03 -11.04 -10.87 -10.81 -10.77 -10.60 -10.53 -10.44 -10.36 -10.26 -10.19 -10.10 -10.02 -9.94 -9.83 -9.81 -9.68 -9.63 -9.55 -9.46 -9.42 -9.34 -9.28 -9.25 -9.17 -9.15 -9.10 -9.04 -9.00 -8.93 -8.91 -8.87 -8.80 -8.77 -8.69 -8.67 -8.68 -8.60 -8.53 -8.49 -8.45 -8.39 -8.32 -8.27 -8.25 -8.23 -8.21 -8.19 -8.14 -8.16 -8.14 -8.13 -8.09 -8.11 -8.12 -8.12 -8.09 -8.10 -8.09 -8.07 -7.98 -7.99 -8.07 -8.09 -8.12 -8.17 -8.19 -8.14 -8.06 -8.10 -8.04 -7.99 -7.93 -7.87 -7.80 -7.74 -7.75 -7.74 -7.68 -7.67 -7.68 -7.62 -7.56 -7.45 -7.45 -7.42 -7.38 -7.29 -7.25 -7.24 -7.17 -7.15 -7.10 -7.05 -7.05 -7.03 -7.01 -6.98 -6.95 -6.93 -6.85 -6.78 -6.74 -6.67 -6.62 -6.58 -6.55 -6.48 -6.38 -6.31 -6.21 -6.16 -6.23 -6.27 -6.28 -6.30 -6.27 -6.30 -6.28 -6.24 -6.18 -6.15 -6.14 -6.10 -6.05 -5.99 -5.94 -5.88 -5.81 -5.69 -5.58 -5.54 -5.50 -5.49 -5.50 -5.49 -5.41 -5.53 -5.48 -5.42 -5.36 -5.30 -5.25 -5.32 -5.38 -5.45 -5.50 -5.47 -5.44 -5.41 -5.41 -5.38 -5.36 -5.32 -5.23 -5.16 -5.11 -5.08 -5.01 -4.93 -4.86 -4.88 -4.81 -4.77 -4.72 -4.66 -4.66 -4.59 -4.56 -4.50 -4.46 -4.39 -4.30 -4.38 -4.47 -4.48 -4.49 -4.53 -4.57 -4.62 -4.51 -4.42 -4.33 -4.26 -4.25 -4.24 -4.22 -4.21 -4.17 -4.13 -3.96 -3.81 -3.62 -3.44 -3.44 -3.44 -3.43 -3.47
-9999.00 -9999.00 -9999.00 -9999.00 -9999.00 -9999.00 -9999.00 -9999.00 -9999.00 -9999.00 -9999.00 -9999.00 -9999.00 -9999.00 -9999.00 -9999.00 -9999.00 -9999.00 -9999.00 -9999.00 -9999.00 -9999.00 -9999.00 -9999.00 -9999.00 -9999.00 -9999.00 -9999.00 -9999.00 -9999.00 -9999.00 -9999.00 -9999.00 -9999.00 -9999.00 -9999.00 -9999.00 -9999.00 -9999.00 -9999.00 -9999.00 -9999.00 -9999.00 -9999.00 -9999.00 -9999.00 -9999.00 -9999.00 -9999.00 -9999.00 -9999.00 -9999.00 -9999.00 -9999.00 -9999.00 -9999.00 -9999.00 -9999.00 -9999.00 -9999.00 -9999.00 -9999.00 -9999.00 -9999.00 -9999.00 -9999.00 -9999.00 -9999.00 -9999.00 -9999.00 -9999.00 -9999.00 -9999.00 -9999.00 -9999.00 -9999.00 -9999.00 -9999.00 -9999.00 -9999.00 -9999.00 -9999.00 -9999.00 -9999.00 -9999.00 -9999.00 -9999.00 -9999.00 -9999.00 -9999.00 -9999.00 -9999.00 -9999.00 -9999.00 -9999.00 -9999.00 -9999.00 -9999.00 -9999.00 -9999.00 -9999.00 -9999.00 -9999.00 -9999.00 -9999.00 -9999.00 -9999.00 -9999.00 -13.14 -13.11 -13.11 -13.08 -13.02 -12.97 -12.90 -12.83 -12.76 -12.69 -12.57 -12.52 -12.45 -12.36 -12.30 -12.26 -12.20 -12.14 -12.05 -11.99 -11.93 -11.89 -11.84 -11.76 -11.70 -11.67 -11.65 -11.59 -11.63 -11.65 -11.65 -11.65 -11.64 -11.63 -11.59 -11.59 -11.57 -11.55 -11.59 -11.59 -11.57 -11.57 -11.56 -11.56 -11.53 -11.51 -11.48 -11.45 -11.43 -11.39 -11.37 -11.38 -11.38 -11.34 -11.38 -11.37 -11.34 -11.35 -11.29 -11.28 -11.26 -11.19 -11.18 -11.14 -11.08 -11.07 -11.02 -10.99 -10.96 -11.00 -10.86 -10.80 -10.63 -10.54 -10.44 -10.35 -10.26 -10.20 -10.08 -10.01 -9.92 -9.84 -9.79 -9.66 -9.62 -9.53 -9.47 -9.41 -9.34 -9.27 -9.23 -9.18 -9.11 -9.04 -9.04 -8.98 -8.94 -8.91 -8.85 -8.82 -8.74 -8.70 -8.65 -8.61 -8.55 -8.52 -8.39 -8.40 -8.38 -8.29 -8.26 -8.24 -8.24 -8.22 -8.16 -8.10 -8.08 -8.10 -8.07 -8.05 -8.06 -8.04 -8.02 -8.04 -8.05 -8.05 -7.93 -7.92 -7.96 -8.00 -8.02 -8.05 -8.07 -8.06 -8.02 -8.07 -8.09 -8.05 -7.99 -7.92 -7.86 -7.80 -7.74 -7.73 -7.68 -7.66 -7.65 -7.59 -7.50 -7.44 -7.45 -7.44 -7.38 -7.32 -7.28 -7.27 -7.21 -7.18 -7.12 -7.08 -7.05 -6.95 -7.01 -6.97 -6.96 -6.95 -6.90 -6.88 -6.82 -6.76 -6.71 -6.64 -6.61 -6.55 -6.49 -6.45 -6.34 -6.27 -6.20 -6.17 -6.18 -6.16 -6.18 -6.19 -6.19 -6.16 -6.16 -6.13 -6.11 -6.05 -6.01 -5.95 -6.01 -5.95 -5.91 -5.79 -5.63 -5.54 -5.46 -5.44 -5.42 -5.41 -5.33 -5.45 -5.42 -5.36 -5.30 -5.24 -5.18 -5.12 -5.06 -5.13 -5.18 -5.29 -5.39 -5.39 -5.34 -5.32 -5.29 -5.27 -5.24 -5.20 -5.15 -5.09 -5.04 -4.98 -4.94 -4.84 -4.82 -4.81 -4.75 -4.71 -4.65 -4.56 -4.53 -4.46 -4.44 -4.43 -4.37 -4.37 -4.32 -4.32 -4.31 -4.35 -4.39 -4.42 -4.46 -4.43 -4.37 -4.30 -4.23 -4.19 -4.17 -4.16 -4.15 -4.06 -3.99 -3.90 -3.74 -3.61 -3.48 -3.35 -3.34 -3.33 -3.32 -3.32
-9999.00 -9999.00 -9999.00 -9999.00 -9999.00 -9999.00 -9999.00 -9999.00 -9999.00 -9999.00 -9999.00 -9999.00 -9999.00 -9999.00 -9999.00 -9999.00 -9999.00 -9999.00 -9999.00 -9999.00 -9999.00 -9999.00 -9999.00 -9999.00 -9999.00 -9999.00 -9999.00 -9999.00 -9999.00 -9999.00 -9999.00 -9999.00 -9999.00 -9999.00 -9999.00 -9999.00 -9999.00 -9999.00 -9999.00 -9999.00 -9999.00 -9999.00 -9999.00 -9999.00 -9999.00 -9999.00 -9999.00 -9999.00 -9999.00 -9999.00 -9999.00 -9999.00 -9999.00 -9999.00 -9999.00 -9999.00 -9999.00 -9999.00 -9999.00 -9999.00 -9999.00 -9999.00 -9999.00 -9999.00 -9999.00 -9999.00 -9999.00 -9999.00 -9999.00 -9999.00 -9999.00 -9999.00 -9999.00 -9999.00 -9999.00 -9999.00 -9999.00 -9999.00 -9999.00 -9999.00 -9999.00 -9999.00 -9999.00 -9999.00 -9999.00 -9999.00 -9999.00 -9999.00 -9999.00 -9999.00 -9999.00 -9999.00 -9999.00 -9999.00 -9999.00 -9999.00 -9999.00 -9999.00 -9999.00 -9999.00 -9999.00 -9999.00 -9999.00 -9999.00 -9999.00 -9999.00 -9999.00 -13.14 -13.13 -13.13 -13.11 -13.05 -13.00 -12.94 -12.85 -12.78 -12.71 -12.62 -12.55 -12.45 -12.41 -12.33 -12.26 -12.22 -12.16 -12.07 -12.00 -11.94 -11.90 -11.84 -11.77 -11.70 -11.68 -11.64 -11.59 -11.64 -11.65 -11.62 -11.62 -11.58 -11.59 -11.56 -11.57 -11.53 -11.53 -11.58 -11.57 -11.57 -11.56 -11.54 -11.55 -11.51 -11.50 -11.48 -11.45 -11.41 -11.36 -11.35 -11.36 -11.34 -11.31 -11.35 -11.33 -11.32 -11.33 -11.28 -11.27 -11.23 -11.20 -11.16 -11.10 -11.07 -11.04 -11.00 -10.96 -10.91 -10.89 -10.86 -10.73 -10.66 -10.54 -10.44 -10.38 -10.25 -10.20 -10.08 -9.99 -9.90 -9.84 -9.76 -9.65 -9.60 -9.52 -9.46 -9.40 -9.34 -9.29 -9.20 -9.18 -9.15 -9.06 -9.03 -8.97 -8.92 -8.88 -8.84 -8.80 -8.73 -8.68 -8.64 -8.58 -8.53 -8.48 -8.39 -8.38 -8.35 -8.25 -8.26 -8.23 -8.24 -8.22 -8.17 -8.11 -8.06 -8.05 -8.01 -8.02 -8.02 -7.99 -8.01 -8.02 -8.03 -7.97 -7.93 -7.95 -7.96 -7.93 -7.92 -7.95 -7.95 -7.92 -7.95 -8.01 -7.98 -8.03 -7.98 -7.93 -7.88 -7.82 -7.76 -7.74 -7.67 -7.62 -7.58 -7.49 -7.47 -7.46 -7.45 -7.43 -7.36 -7.31 -7.30 -7.23 -7.20 -7.15 -7.11 -7.07 -6.99 -6.99 -6.98 -6.91 -6.93 -6.92 -6.90 -6.85 -6.81 -6.79 -6.69 -6.64 -6.57 -6.53 -6.51 -6.45 -6.35 -6.28 -6.23 -6.17 -6.12 -6.08 -6.08 -6.04 -6.06 -6.06 -6.05 -6.04 -6.00 -5.99 -5.92 -5.90 -5.83 -5.85 -5.90 -5.79 -5.68 -5.59 -5.50 -5.43 -5.35 -5.37 -5.36 -5.37 -5.30 -5.27 -5.22 -5.16 -5.10 -5.05 -4.97 -4.88 -4.97 -5.07 -5.17 -5.23 -5.27 -5.25 -5.22 -5.20 -5.18 -5.15 -5.11 -5.08 -5.01 -4.95 -4.89 -4.82 -4.76 -4.72 -4.73 -4.72 -4.68 -4.64 -4.60 -4.55 -4.46 -4.39 -4.32 -4.25 -4.18 -4.11 -4.16 -4.18 -4.20 -4.22 -4.25 -4.28 -4.32 -4.21 -4.15 -4.11 -4.11 -4.04 -3.97 -3.90 -3.83 -3.76 -3.65 -3.54 -3.49 -3.41 -3.32 -3.22 -3.15 -3.11 -3.11
-9999.00 -9999.00 -9999.00 -9999.00 -9999.00 -9999.00 -9999.00 -9999.00 -9999.00 -9999.00 -9999.00 -9999.00 -9999.00 -9999.00 -9999.00 -9999.00 -9999.00 -9999.00 -9999.00 -9999.00 -9999.00 -9999.00 -9999.00 -9999.00 -9999.00 -9999.00 -9999.00 -9999.00 -9999.00 -9999.00 -9999.00 -9999.00 -9999.00 -9999.00 -9999.00 -9999.00 -9999.00 -9999.00 -9999.00 -9999.00 -9999.00 -9999.00 -9999.00 -9999.00 -9999.00 -9999.00 -9999.00 -9999.00 -9999.00 -9999.00 -9999.00 -9999.00 -9999.00 -9999.00 -9999.00 -9999.00 -9999.00 -9999.00 -9999.00 -9999.00 -9999.00 -9999.00 -9999.00 -9999.00 -9999.00 -9999.00 -9999.00 -9999.00 -9999.00 -9999.00 -9999.00 -9999.00 -9999.00 -9999.00 -9999.00 -9999.00 -9999.00 -9999.00 -9999.00 -9999.00 -9999.00 -9999.00 -9999.00 -9999.00 -9999.00 -9999.00 -9999.00 -9999.00 -9999.00 -9999.00 -9999.00 -9999.00 -9999.00 -9999.00 -9999.00 -9999.00 -9999.00 -9999.00 -9999.00 -9999.00 -9999.00 -9999.00 -9999.00 -9999.00 -9999.00 -13.24 -13.18 -13.16 -13.17 -13.13 -13.09 -13.03 -12.97 -12.88 -12.80 -12.73 -12.66 -12.59 -12.49 -12.42 -12.36 -12.29 -12.24 -12.18 -12.08 -12.01 -11.95 -11.90 -11.84 -11.77 -11.70 -11.69 -11.64 -11.59 -11.62 -11.64 -11.60 -11.59 -11.58 -11.57 -11.55 -11.56 -11.50 -11.52 -11.57 -11.52 -11.54 -11.53 -11.54 -11.54 -11.52 -11.49 -11.48 -11.44 -11.38 -11.34 -11.34 -11.32 -11.29 -11.27 -11.29 -11.31 -11.27 -11.31 -11.26 -11.25 -11.19 -11.17 -11.12 -11.08 -11.06 -11.02 -10.98 -10.93 -10.91 -10.86 -10.81 -10.71 -10.62 -10.55 -10.44 -10.37 -10.26 -10.20 -10.09 -9.97 -9.88 -9.81 -9.71 -9.63 -9.57 -9.51 -9.45 -9.40 -9.32 -9.26 -9.22 -9.19 -9.13 -9.08 -9.02 -8.96 -8.90 -8.86 -8.82 -8.77 -8.70 -8.66 -8.62 -8.54 -8.48 -8.41 -8.38 -8.31 -8.24 -8.23 -8.25 -8.23 -8.28 -8.25 -8.19 -8.14 -8.09 -8.01 -7.97 -8.00 -7.96 -7.99 -7.99 -7.99 -7.99 -7.95 -7.94 -7.95 -7.94 -7.88 -7.92 -7.85 -7.84 -7.89 -7.93 -7.91 -7.92 -7.93 -7.93 -7.91 -7.89 -7.82 -7.78 -7.74 -7.65 -7.60 -7.48 -7.47 -7.44 -7.43 -7.41 -7.36 -7.34 -7.31 -7.23 -7.18 -7.15 -7.13 -7.07 -7.05 -6.98 -6.96 -6.90 -6.88 -6.88 -6.87 -6.82 -6.78 -6.78 -6.72 -6.67 -6.58 -6.57 -6.52 -6.46 -6.38 -6.32 -6.29 -6.19 -6.19 -6.11 -6.05 -5.92 -5.95 -5.95 -5.94 -5.92 -5.94 -5.93 -5.90 -5.88 -5.86 -5.81 -5.80 -5.78 -5.75 -5.63 -5.55 -5.45 -5.35 -5.25 -5.21 -5.16 -5.11 -5.17 -5.19 -5.22 -5.17 -5.05 -4.93 -4.81 -4.69 -4.59 -4.80 -4.89 -4.99 -5.13 -5.20 -5.18 -5.15 -5.13 -5.09 -5.06 -5.01 -4.95 -4.90 -4.84 -4.77 -4.71 -4.64 -4.66 -4.61 -4.61 -4.55 -4.50 -4.44 -4.37 -4.29 -4.22 -4.10 -4.03 -3.96 -3.89 -3.85 -3.90 -3.95 -4.01 -3.97 -4.00 -4.05 -4.02 -4.00 -3.96 -3.92 -3.83 -3.75 -3.66 -3.58 -3.50 -3.43 -3.39 -3.34 -3.28 -3.23 -3.15 -3.07 -2.99 -2.89
-9999.00 -9999.00 -9999.00 -9999.00 -9999.00 -9999.00 -9999.00 -9999.00 -9999.00 -9999.00 -9999.00 -9999.00 -9999.00 -9999.00 -9999.00 -9999.00 -9999.00 -9999.00 -9999.00 -9999.00 -9999.00 -9999.00 -9999.00 -9999.00 -9999.00 -9999.00 -9999.00 -9999.00 -9999.00 -9999.00 -9999.00 -9999.00 -9999.00 -9999.00 -9999.00 -9999.00 -9999.00 -9999.00 -9999.00 -9999.00 -9999.00 -9999.00 -9999.00 -9999.00 -9999.00 -9999.00 -9999.00 -9999.00 -9999.00 -9999.00 -9999.00 -9999.00 -9999.00 -9999.00 -9999.00 -9999.00 -9999.00 -9999.00 -9999.00 -9999.00 -9999.00 -9999.00 -9999.00 -9999.00 -9999.00 -9999.00 -9999.00 -9999.00 -9999.00 -9999.00 -9999.00 -9999.00 -9999.00 -9999.00 -9999.00 -9999.00 -9999.00 -9999.00 -9999.00 -9999.00 -9999.00 -9999.00 -9999.00 -9999.00 -9999.00 -9999.00 -9999.00 -9999.00 -9999.00 -9999.00 -9999.00 -9999.00 -9999.00 -9999.00 -9999.00 -9999.00 -9999.00 -9999.00 -9999.00 -9999.00 -9999.00 -9999.00 -9999.00 -13.40 -13.28 -13.22 -13.19 -13.19 -13.18 -13.12 -13.06 -13.00 -12.90 -12.82 -12.76 -12.71 -12.61 -12.52 -12.46 -12.39 -12.32 -12.26 -12.20 -12.10 -12.03 -11.98 -11.90 -11.84 -11.77 -11.69 -11.71 -11.64 -11.59 -11.61 -11.62 -11.58 -11.57 -11.57 -11.55 -11.55 -11.51 -11.47 -11.50 -11.55 -11.54 -11.52 -11.51 -11.53 -11.52 -11.50 -11.50 -11.48 -11.47 -11.39 -11.35 -11.33 -11.29 -11.25 -11.23 -11.24 -11.26 -11.23 -11.26 -11.23 -11.24 -11.18 -11.14 -11.09 -11.07 -11.02 -10.98 -10.94 -10.89 -10.87 -10.84 -10.78 -10.70 -10.63 -10.56 -10.46 -10.40 -10.28 -10.19 -10.08 -9.96 -9.85 -9.77 -9.66 -9.58 -9.53 -9.48 -9.43 -9.40 -9.32 -9.26 -9.22 -9.18 -9.12 -9.07 -9.01 -8.94 -8.87 -8.84 -8.82 -8.74 -8.71 -8.66 -8.55 -8.50 -8.44 -8.39 -8.31 -8.27 -8.22 -8.25 -8.20 -8.23 -8.28 -8.27 -8.21 -8.16 -8.08 -8.06 -8.02 -7.94 -7.97 -7.98 -7.93 -7.96 -7.96 -7.93 -7.94 -7.91 -7.86 -7.92 -7.85 -7.85 -7.85 -7.84 -7.85 -7.82 -7.87 -7.85 -7.86 -7.87 -7.85 -7.87 -7.81 -7.73 -7.69 -7.59 -7.54 -7.43 -7.41 -7.39 -7.36 -7.32 -7.30 -7.26 -7.20 -7.13 -7.12 -7.08 -7.03 -6.97 -6.94 -6.87 -6.84 -6.79 -6.79 -6.77 -6.73 -6.75 -6.70 -6.66 -6.58 -6.58 -6.52 -6.46 -6.39 -6.32 -6.25 -6.24 -6.24 -6.16 -6.06 -6.00 -5.93 -5.87 -5.83 -5.83 -5.81 -5.81 -5.80 -5.79 -5.81 -5.79 -5.76 -5.75 -5.73 -5.70 -5.63 -5.51 -5.39 -5.26 -5.16 -5.09 -5.07 -5.07 -5.07 -5.12 -5.16 -5.15 -5.06 -4.94 -4.79 -4.66 -4.52 -4.42 -4.53 -4.64 -4.81 -4.98 -5.09 -5.10 -5.08 -5.05 -5.01 -4.97 -4.86 -4.80 -4.74 -4.67 -4.61 -4.54 -4.48 -4.46 -4.46 -4.45 -4.42 -4.38 -4.35 -4.34 -4.27 -4.20 -4.13 -4.06 -3.99 -3.97 -3.74 -3.63 -3.50 -3.65 -3.71 -3.76 -3.75 -3.79 -3.73 -3.71 -3.68 -3.60 -3.54 -3.45 -3.37 -3.30 -3.25 -3.23 -3.19 -3.16 -3.10 -2.99 -2.88 -2.78 -2.72
-9999.00 -9999.00 -9999.00 -9999.00 -9999.00 -9999.00 -9999.00 -9999.00 -9999.00 -9999.00 -9999.00 -9999.00 -9999.00 -9999.00 -9999.00 -9999.00 -9999.00 -9999.00 -9999.00 -9999.00 -9999.00 -9999.00 -9999.00 -9999.00 -9999.00 -9999.00 -9999.00 -9999.00 -9999.00 -9999.00 -9999.00 -9999.00 -9999.00 -9999.00 -9999.00 -9999.00 -9999.00 -9999.00 -9999.00 -9999.00 -9999.00 -9999.00 -9999.00 -9999.00 -9999.00 -9999.00 -9999.00 -9999.00 -9999.00 -9999.00 -9999.00 -9999.00 -9999.00 -9999.00 -9999.00 -9999.00 -9999.00 -9999.00 -9999.00 -9999.00 -9999.00 -9999.00 -9999.00 -9999.00 -9999.00 -9999.00 -9999.00 -9999.00 -9999.00 -9999.00 -9999.00 -9999.00 -9999.00 -9999.00 -9999.00 -9999.00 -9999.00 -9999.00 -9999.00 -9999.00 -9999.00 -9999.00 -9999.00 -9999.00 -9999.00 -9999.00 -9999.00 -9999.00 -9999.00 -9999.00 -9999.00 -9999.00 -9999.00 -9999.00 -9999.00 -9999.00 -9999.00 -9999.00 -9999.00 -9999.00 -13.76 -13.62 -13.46 -13.34 -13.27 -13.23 -13.22 -13.19 -13.14 -13.08 -13.03 -12.93 -12.83 -12.79 -12.76 -12.64 -12.55 -12.46 -12.40 -12.34 -12.28 -12.23 -12.13 -12.07 -11.99 -11.93 -11.87 -11.78 -11.69 -11.70 -11.63 -11.60 -11.60 -11.59 -11.57 -11.55 -11.57 -11.53 -11.54 -11.49 -11.46 -11.44 -11.50 -11.54 -11.51 -11.48 -11.53 -11.51 -11.49 -11.51 -11.50 -11.46 -11.41 -11.36 -11.34 -11.28 -11.24 -11.19 -11.19 -11.21 -11.19 -11.21 -11.19 -11.18 -11.15 -11.09 -11.08 -11.04 -11.00 -10.95 -10.90 -10.86 -10.84 -10.79 -10.73 -10.69 -10.61 -10.51 -10.45 -10.39 -10.25 -10.17 -10.07 -9.95 -9.81 -9.76 -9.64 -9.54 -9.49 -9.45 -9.39 -9.34 -9.28 -9.28 -9.23 -9.17 -9.11 -9.05 -8.98 -8.91 -8.83 -8.81 -8.79 -8.76 -8.72 -8.61 -8.56 -8.48 -8.41 -8.33 -8.27 -8.22 -8.20 -8.20 -8.17 -8.21 -8.27 -8.27 -8.21 -8.14 -8.14 -8.09 -8.02 -7.99 -7.98 -7.93 -7.94 -7.95 -7.95 -7.94 -7.91 -7.84 -7.91 -7.87 -7.87 -7.84 -7.86 -7.84 -7.79 -7.80 -7.77 -7.81 -7.81 -7.81 -7.82 -7.80 -7.78 -7.74 -7.70 -7.63 -7.55 -7.49 -7.41 -7.35 -7.32 -7.27 -7.26 -7.18 -7.16 -7.13 -7.09 -7.06 -6.98 -6.94 -6.86 -6.81 -6.73 -6.74 -6.72 -6.70 -6.67 -6.65 -6.63 -6.57 -6.53 -6.49 -6.43 -6.39 -6.33 -6.22 -6.22 -6.18 -6.11 -6.04 -6.06 -5.97 -5.92 -5.88 -5.80 -5.70 -5.70 -5.67 -5.68 -5.72 -5.72 -5.69 -5.69 -5.68 -5.67 -5.65 -5.61 -5.52 -5.51 -5.38 -5.30 -5.17 -5.08 -5.08 -5.07 -5.05 -5.04 -5.02 -4.99 -4.99 -4.88 -4.76 -4.65 -4.36 -4.28 -4.35 -4.49 -4.62 -4.82 -4.84 -4.95 -4.91 -4.87 -4.83 -4.79 -4.72 -4.67 -4.62 -4.56 -4.50 -4.42 -4.35 -4.26 -4.28 -4.27 -4.30 -4.31 -4.27 -4.18 -4.13 -4.11 -4.06 -4.01 -3.96 -3.90 -3.81 -3.70 -3.57 -3.44 -3.33 -3.45 -3.46 -3.47 -3.49 -3.44 -3.47 -3.42 -3.32 -3.28 -3.21 -3.20 -3.13 -3.08 -3.00 -2.96 -2.95 -2.85 -2.73 -2.63 -2.56
-9999.00 -9999.00 -9999.00 -9999.00 -9999.00 -9999.00 -9999.00 -9999.00 -9999.00 -9999.00 -9999.00 -9999.00 -9999.00 -9999.00 -9999.00 -9999.00 -9999.00 -9999.00 -9999.00 -9999.00 -9999.00 -9999.00 -9999.00 -9999.00 -9999.00 -9999.00 -9999.00 -9999.00 -9999.00 -9999.00 -9999.00 -9999.00 -9999.00 -9999.00 -9999.00 -9999.00 -9999.00 -9999.00 -9999.00 -9999.00 -9999.00 -9999.00 -9999.00 -9999.00 -9999.00 -9999.00 -9999.00 -9999.00 -9999.00 -9999.00 -9999.00 -9999.00 -9999.00 -9999.00 -9999.00 -9999.00 -9999.00 -9999.00 -9999.00 -9999.00 -9999.00 -9999.00 -9999.00 -9999.00 -9999.00 -9999.00 -9999.00 -9999.00 -9999.00 -9999.00 -9999.00 -9999.00 -9999.00 -9999.00 -9999.00 -9999.00 -9999.00 -9999.00 -9999.00 -9999.00 -9999.00 -9999.00 -9999.00 -9999.00 -9999.00 -9999.00 -9999.00 -9999.00 -9999.00 -9999.00 -9999.00 -9999.00 -9999.00 -9999.00 -9999.00 -9999.00 -9999.00 -14.16 -13.96 -13.83 -13.68 -13.52 -13.40 -13.31 -13.26 -13.24 -13.20 -13.16 -13.10 -13.04 -12.95 -12.85 -12.81 -12.77 -12.68 -12.57 -12.48 -12.43 -12.37 -12.31 -12.26 -12.16 -12.11 -12.01 -11.96 -11.90 -11.80 -11.72 -11.69 -11.62 -11.61 -11.60 -11.57 -11.56 -11.54 -11.55 -11.53 -11.54 -11.48 -11.46 -11.46 -11.49 -11.47 -11.49 -11.51 -11.53 -11.48 -11.46 -11.53 -11.49 -11.46 -11.42 -11.38 -11.34 -11.28 -11.25 -11.20 -11.17 -11.17 -11.15 -11.16 -11.14 -11.12 -11.10 -11.08 -11.05 -11.01 -10.96 -10.92 -10.86 -10.84 -10.81 -10.76 -10.69 -10.65 -10.62 -10.53 -10.44 -10.33 -10.27 -10.16 -10.01 -9.93 -9.78 -9.72 -9.61 -9.54 -9.46 -9.42 -9.35 -9.29 -9.25 -9.23 -9.19 -9.15 -9.10 -9.01 -8.97 -8.90 -8.87 -8.84 -8.80 -8.78 -8.67 -8.64 -8.54 -8.48 -8.39 -8.28 -8.25 -8.23 -8.18 -8.14 -8.13 -8.17 -8.18 -8.18 -8.20 -8.23 -8.16 -8.11 -8.07 -8.03 -7.98 -7.92 -7.96 -7.94 -7.94 -7.93 -7.86 -7.92 -7.89 -7.86 -7.85 -7.86 -7.87 -7.88 -7.82 -7.78 -7.76 -7.76 -7.77 -7.77 -7.76 -7.75 -7.73 -7.74 -7.75 -7.65 -7.58 -7.50 -7.44 -7.36 -7.27 -7.26 -7.16 -7.18 -7.15 -7.09 -7.08 -6.98 -6.97 -6.90 -6.84 -6.75 -6.74 -6.66 -6.63 -6.60 -6.62 -6.58 -6.54 -6.50 -6.44 -6.40 -6.35 -6.30 -6.21 -6.21 -6.15 -6.08 -6.02 -6.01 -5.95 -5.94 -5.93 -5.85 -5.74 -5.66 -5.61 -5.59 -5.62 -5.63 -5.60 -5.59 -5.62 -5.56 -5.57 -5.48 -5.52 -5.50 -5.45 -5.34 -5.22 -5.12 -5.09 -5.06 -4.92 -4.92 -4.91 -4.89 -4.92 -4.91 -4.98 -4.71 -4.67 -4.60 -4.52 -4.36 -4.21 -4.30 -4.53 -4.58 -4.71 -4.82 -4.77 -4.72 -4.63 -4.60 -4.55 -4.50 -4.44 -4.39 -4.31 -4.27 -4.20 -4.08 -4.11 -4.15 -4.20 -4.15 -4.08 -4.02 -3.93 -3.84 -3.73 -3.72 -3.70 -3.66 -3.63 -3.57 -3.49 -3.36 -3.32 -3.29 -3.28 -3.26 -3.24 -3.21 -3.24 -3.20 -3.14 -3.08 -3.04 -2.92 -2.87 -2.83 -2.79 -2.75 -2.72 -2.67 -2.62 -2.54 -2.40
-9999.00 -9999.00 -9999.00 -9999.00 -9999.00 -9999.00 -9999.00 -9999.00 -9999.00 -9999.00 -9999.00 -9999.00 -9999.00 -9999.00 -9999.00 -9999.00 -9999.00 -9999.00 -9999.00 -9999.00 -9999.00 -9999.00 -9999.00 -9999.00 -9999.00 -9999.00 -9999.00 -9999.00 -9999.00 -9999.00 -9999.00 -9999.00 -9999.00 -9999.00 -9999.00 -9999.00 -9999.00 -9999.00 -9999.00 -9999.00 -9999.00 -9999.00 -9999.00 -9999.00 -9999.00 -9999.00 -9999.00 -9999.00 -9999.00 -9999.00 -9999.00 -9999.00 -9999.00 -9999.00 -9999.00 -9999.00 -9999.00 -9999.00 -9999.00 -9999.00 -9999.00 -9999.00 -9999.00 -9999.00 -9999.00 -9999.00 -9999.00 -9999.00 -9999.00 -9999.00 -9999.00 -9999.00 -9999.00 -9999.00 -9999.00 -9999.00 -9999.00 -9999.00 -9999.00 -9999.00 -9999.00 -9999.00 -9999.00 -9999.00 -9999.00 -9999.00 -9999.00 -9999.00 -9999.00 -9999.00 -9999.00 -9999.00 -9999.00 -9999.00 -9999.00 -14.45 -14.22 -14.02 -13.89 -13.74 -13.59 -13.45 -13.35 -13.30 -13.27 -13.22 -13.17 -13.11 -13.05 -12.96 -12.87 -12.80 -12.75 -12.72 -12.60 -12.51 -12.45 -12.40 -12.33 -12.29 -12.19 -12.13 -12.04 -11.99 -11.93 -11.83 -11.76 -11.71 -11.60 -11.60 -11.57 -11.55 -11.55 -11.53 -11.53 -11.53 -11.55 -11.51 -11.47 -11.46 -11.48 -11.48 -11.52 -11.53 -11.51 -11.46 -11.46 -11.54 -11.48 -11.45 -11.44 -11.39 -11.35 -11.29 -11.26 -11.20 -11.18 -11.18 -11.13 -11.10 -11.10 -11.07 -11.06 -11.05 -11.03 -10.98 -10.93 -10.89 -10.82 -10.81 -10.78 -10.72 -10.63 -10.60 -10.54 -10.49 -10.42 -10.34 -10.25 -10.16 -10.02 -9.89 -9.82 -9.69 -9.58 -9.51 -9.44 -9.35 -9.29 -9.25 -9.22 -9.20 -9.17 -9.15 -9.05 -9.01 -8.97 -8.92 -8.89 -8.84 -8.82 -8.73 -8.71 -8.61 -8.56 -8.49 -8.38 -8.35 -8.26 -8.21 -8.16 -8.08 -8.09 -8.09 -8.09 -8.09 -8.11 -8.16 -8.19 -8.15 -8.09 -8.03 -7.97 -7.97 -7.95 -7.90 -7.95 -7.88 -7.91 -7.88 -7.86 -7.92 -7.93 -7.90 -7.89 -7.90 -7.87 -7.80 -7.78 -7.75 -7.74 -7.73 -7.71 -7.69 -7.70 -7.70 -7.65 -7.63 -7.58 -7.53 -7.44 -7.38 -7.32 -7.18 -7.21 -7.16 -7.04 -7.09 -7.00 -6.95 -6.91 -6.88 -6.82 -6.75 -6.65 -6.58 -6.58 -6.57 -6.54 -6.51 -6.47 -6.43 -6.37 -6.32 -6.25 -6.17 -6.19 -6.12 -6.06 -6.00 -5.92 -5.92 -5.90 -5.88 -5.84 -5.83 -5.75 -5.69 -5.61 -5.59 -5.54 -5.49 -5.54 -5.52 -5.49 -5.50 -5.45 -5.45 -5.37 -5.31 -5.25 -5.17 -5.14 -5.10 -5.02 -4.91 -4.86 -4.78 -4.78 -4.78 -4.78 -4.83 -4.81 -4.83 -4.69 -4.57 -4.44 -4.31 -4.21 -4.16 -4.10 -4.47 -4.54 -4.54 -4.67 -4.66 -4.62 -4.57 -4.45 -4.37 -4.31 -4.23 -4.15 -4.07 -4.02 -3.93 -3.92 -3.96 -4.00 -4.02 -3.96 -3.90 -3.89 -3.80 -3.71 -3.61 -3.52 -3.43 -3.32 -3.31 -3.29 -3.27 -3.26 -3.25 -3.18 -3.15 -3.13 -3.11 -3.08 -3.07 -3.02 -2.96 -2.91 -2.85 -2.79 -2.71 -2.63 -2.55 -2.46 -2.38 -2.38 -2.30 -2.22 -2.16
