ncols	375
nrows	31
xllcorner	296480
yllcorner	131305
cellsize	5.00
NODATA_value	-9999.00
-9.20 -9.17 -9.15 -9.12 -9.10 -9.08 -9.05 -9.04 -9.02 -9.01 -8.99 -8.97 -8.94 -8.91 -8.92 -8.93 -8.90 -8.88 -8.77 -8.54 -8.23 -7.88 -7.78 -7.81 -7.50 -7.46 -7.57 -7.68 -7.24 -6.88 -6.78 -6.61 -6.67 -6.56 -6.38 -6.46 -6.53 -6.42 -6.43 -6.26 -6.57 -6.18 -6.18 -6.20 -6.22 -6.11 -6.05 -5.93 -5.83 -5.76 -5.66 -5.54 -5.34 -5.16 -5.01 -4.87 -4.78 -4.62 -4.42 -4.30 -4.17 -4.02 -3.84 -3.78 -3.61 -3.50 -3.46 -3.43 -3.32 -3.25 -3.21 -3.16 -3.10 -3.06 -3.06 -3.12 -3.15 -3.23 -3.29 -3.38 -3.42 -3.44 -3.51 -3.56 -3.53 -3.52 -3.50 -3.47 -3.47 -3.50 -3.52 -3.53 -3.51 -3.51 -3.52 -3.51 -3.46 -3.46 -3.40 -3.39 -3.38 -3.33 -3.26 -3.25 -3.21 -3.16 -3.14 -3.15 -3.07 -2.95 -2.83 -2.72 -2.62 -2.52 -2.59 -2.51 -2.45 -2.35 -2.25 -2.11 -2.03 -2.03 -1.93 -1.79 -1.85 -1.77 -1.64 -1.62 -1.49 -1.39 -1.38 -1.28 -1.23 -1.15 -1.11 -1.09 -1.08 -1.05 -0.97 -0.90 -0.86 -0.82 -0.72 -0.70 -0.62 -0.63 -0.64 -0.55 -0.48 -0.45 -0.42 -0.39 -0.35 -0.39 -0.26 -0.11 -0.06 -0.11 -0.05 -0.00 0.06 0.13 0.15 0.28 0.21 0.32 0.31 0.37 0.37 0.37 0.39 0.41 0.51 0.50 0.43 0.58 0.67 0.64 0.67 0.72 0.73 0.73 0.78 0.74 0.74 0.82 0.87 0.90 0.90 0.85 0.91 0.96 0.93 0.89 0.88 0.88 0.90 1.03 1.14 1.27 1.48 1.58 1.81 2.01 2.14 2.30 2.41 2.55 2.69 2.92 3.12 3.33 3.32 3.50 3.41 3.30 3.21 3.40 3.21 3.26 2.97 2.88 2.85 3.14 3.11 2.81 2.54 2.44 2.83 3.09 3.15 3.12 3.09 3.16 3.30 3.29 3.33 3.38 3.43 3.32 3.34 3.16 3.20 3.28 3.26 3.26 3.24 3.27 3.36 3.33 3.35 3.35 3.33 3.47 3.35 3.30 3.24 3.29 3.34 3.49 3.44 3.15 2.85 2.72 2.84 2.90 2.99 2.88 2.57 2.46 2.25 -9999.00 -9999.00 -9999.00 -9999.00 -9999.00 -9999.00 -9999.00 -9999.00 -9999.00 -9999.00 -9999.00 -9999.00 -9999.00 -9999.00 -9999.00 -9999.00 -9999.00 -9999.00 -9999.00 3.48 3.59 3.54 2.81 2.14 1.69 1.47 1.16 0.96 0.87 0.73 0.59 0.44 0.21 0.12 -0.05 -0.12 -0.25 -0.38 -0.41 -0.39 -0.49 -0.60 -0.67 -0.76 -0.80 -0.90 -1.00 -1.12 -1.24 -1.28 -1.36 -1.41 -1.56 -1.56 -1.65 -1.76 -1.85 -1.88 -1.96 -2.07 -2.17 -2.26 -2.39 -2.49 -2.55 -2.64 -2.64 -2.64 -2.68 -2.72 -2.79 -2.84 -2.85 -2.89 -2.94 -2.98 -3.03 -3.08 -3.12 -3.17 -3.20 -3.21 -3.28 -3.35 -3.41 -3.48 -3.54 -3.59 -3.61 -3.68 -3.76 -3.80 -3.86 -3.87 -3.93 -4.00 -4.06 -4.13 -4.21 -4.27 -4.32 -4.35 -4.43 -4.51
-9.14 -9.11 -9.08 -9.05 -9.03 -9.00 -8.98 -8.95 -8.92 -8.91 -8.87 -8.85 -8.87 -8.87 -8.82 -8.88 -8.85 -8.79 -8.62 -8.40 -8.09 -7.80 -7.56 -7.38 -7.18 -7.31 -7.21 -7.04 -6.62 -6.42 -6.36 -6.26 -6.26 -6.13 -6.11 -6.46 -6.30 -6.16 -6.09 -5.88 -6.14 -6.01 -5.85 -5.91 -5.89 -5.72 -5.65 -5.56 -5.49 -5.41 -5.27 -5.11 -5.00 -4.82 -4.66 -4.50 -4.32 -4.27 -4.10 -3.86 -3.73 -3.66 -3.53 -3.49 -3.30 -3.26 -3.19 -3.15 -3.08 -3.03 -2.99 -2.94 -2.91 -2.87 -2.89 -2.93 -2.99 -3.03 -3.11 -3.19 -3.23 -3.30 -3.32 -3.38 -3.37 -3.36 -3.36 -3.37 -3.33 -3.33 -3.35 -3.37 -3.36 -3.36 -3.39 -3.40 -3.36 -3.32 -3.29 -3.30 -3.21 -3.20 -3.14 -3.13 -3.09 -3.04 -3.02 -2.99 -2.88 -2.76 -2.66 -2.56 -2.52 -2.50 -2.44 -2.37 -2.29 -2.19 -2.09 -2.03 -1.85 -1.73 -1.67 -1.66 -1.58 -1.59 -1.48 -1.36 -1.26 -1.19 -1.11 -1.10 -1.09 -1.09 -1.04 -0.98 -0.90 -0.85 -0.81 -0.77 -0.72 -0.67 -0.49 -0.57 -0.50 -0.50 -0.51 -0.42 -0.38 -0.35 -0.32 -0.28 -0.32 -0.25 -0.02 0.06 0.10 0.13 0.05 0.15 0.23 0.24 0.28 0.41 0.40 0.42 0.45 0.47 0.51 0.53 0.55 0.57 0.66 0.66 0.65 0.74 0.73 0.79 0.82 0.80 0.89 0.90 0.83 0.78 0.81 0.87 0.90 0.93 1.00 1.00 0.99 1.02 1.02 0.98 1.02 1.08 1.23 1.45 1.63 1.75 2.00 2.13 2.36 2.50 2.65 2.83 3.37 3.32 3.46 3.65 3.40 3.34 3.29 -9999.00 -9999.00 3.13 3.07 3.01 2.94 2.72 2.49 2.57 2.59 2.78 2.66 2.55 2.40 2.36 2.66 2.61 2.73 2.85 3.08 3.18 3.12 3.15 3.14 3.12 3.05 3.03 2.95 2.94 2.88 2.92 3.08 3.12 3.13 3.18 3.22 3.32 3.30 3.25 3.23 3.22 3.22 3.19 3.10 3.07 2.95 3.02 2.93 2.71 2.49 2.36 2.22 2.22 2.21 2.21 2.20 2.25 1.97 -9999.00 -9999.00 -9999.00 -9999.00 -9999.00 -9999.00 -9999.00 -9999.00 -9999.00 -9999.00 -9999.00 -9999.00 -9999.00 -9999.00 -9999.00 -9999.00 -9999.00 -9999.00 -9999.00 -9999.00 3.36 3.55 3.82 2.89 2.30 1.77 1.50 1.19 0.97 0.83 0.67 0.51 0.30 0.18 0.07 0.04 -0.17 -0.21 -0.24 -0.37 -0.32 -0.42 -0.52 -0.63 -0.70 -0.77 -0.83 -0.93 -1.06 -1.12 -1.27 -1.41 -1.44 -1.55 -1.61 -1.62 -1.70 -1.79 -1.83 -1.92 -2.01 -2.12 -2.24 -2.34 -2.48 -2.57 -2.50 -2.56 -2.57 -2.62 -2.65 -2.73 -2.75 -2.80 -2.83 -2.88 -2.92 -2.98 -3.01 -3.06 -3.10 -3.15 -3.19 -3.25 -3.31 -3.38 -3.43 -3.47 -3.54 -3.57 -3.63 -3.69 -3.74 -3.81 -3.90 -3.90 -3.97 -4.04 -4.09 -4.17 -4.23 -4.30 -4.34 -4.35
-9.09 -9.05 -9.06 -9.01 -9.00 -8.97 -8.92 -8.87 -8.82 -8.79 -8.80 -8.82 -8.82 -8.80 -8.78 -8.75 -8.72 -8.67 -8.56 -8.28 -7.82 -7.49 -7.27 -7.04 -6.91 -6.94 -6.59 -6.54 -6.35 -6.12 -5.93 -5.89 -5.79 -5.64 -5.78 -5.82 -5.75 -5.78 -5.65 -5.46 -5.57 -5.75 -5.56 -5.44 -5.48 -5.37 -5.27 -5.22 -5.10 -5.00 -4.86 -4.74 -4.61 -4.45 -4.20 -4.10 -3.92 -3.77 -3.68 -3.45 -3.34 -3.29 -3.19 -3.18 -3.08 -3.02 -2.99 -2.92 -2.87 -2.83 -2.79 -2.78 -2.76 -2.73 -2.70 -2.74 -2.82 -2.82 -2.94 -2.99 -3.04 -3.09 -3.15 -3.21 -3.20 -3.21 -3.26 -3.23 -3.23 -3.25 -3.25 -3.25 -3.27 -3.26 -3.26 -3.29 -3.24 -3.23 -3.17 -3.17 -3.10 -3.05 -3.00 -3.00 -2.97 -2.92 -2.91 -2.80 -2.70 -2.63 -2.54 -2.58 -2.46 -2.38 -2.36 -2.27 -2.16 -2.09 -1.95 -1.79 -1.65 -1.49 -1.44 -1.44 -1.34 -1.23 -1.15 -1.10 -1.03 -1.02 -1.02 -1.07 -1.06 -0.94 -0.82 -0.84 -0.84 -0.73 -0.67 -0.63 -0.59 -0.55 -0.49 -0.48 -0.40 -0.47 -0.50 -0.30 -0.33 -0.27 -0.22 -0.21 -0.15 -0.12 0.06 0.10 0.15 0.21 0.20 0.24 0.31 0.36 0.44 0.51 0.50 0.53 0.56 0.61 0.71 0.72 0.70 0.76 0.79 0.81 0.86 0.83 0.85 0.88 0.95 0.88 0.91 0.96 0.95 0.83 0.88 0.88 0.89 0.99 1.05 1.09 1.12 1.28 1.40 1.43 1.48 1.59 1.74 1.93 2.13 2.33 2.52 2.71 3.02 3.23 3.66 3.58 3.51 3.45 3.45 3.46 3.28 -9999.00 -9999.00 -9999.00 -9999.00 -9999.00 -9999.00 2.72 2.59 2.40 2.17 2.19 2.29 2.39 2.43 2.40 2.35 2.28 2.24 2.24 2.27 2.27 2.35 2.69 2.98 3.01 3.02 2.76 2.76 2.76 2.76 2.76 2.67 2.66 2.84 2.89 2.96 3.01 3.03 3.06 3.07 3.09 3.10 3.04 2.97 3.00 3.00 2.79 -9999.00 -9999.00 -9999.00 -9999.00 -9999.00 -9999.00 -9999.00 -9999.00 -9999.00 -9999.00 -9999.00 -9999.00 -9999.00 -9999.00 -9999.00 -9999.00 -9999.00 -9999.00 -9999.00 -9999.00 -9999.00 -9999.00 -9999.00 -9999.00 -9999.00 -9999.00 -9999.00 -9999.00 -9999.00 -9999.00 -9999.00 -9999.00 -9999.00 -9999.00 -9999.00 3.55 3.68 3.14 2.41 1.96 1.52 1.25 0.91 0.74 0.57 0.38 0.27 0.15 0.03 -0.02 -0.09 -0.24 -0.16 -0.30 -0.38 -0.46 -0.52 -0.54 -0.65 -0.72 -0.79 -0.90 -0.95 -1.11 -1.17 -1.21 -1.35 -1.47 -1.54 -1.61 -1.67 -1.75 -1.84 -1.91 -1.98 -2.06 -2.17 -2.31 -2.43 -2.48 -2.48 -2.46 -2.51 -2.54 -2.59 -2.63 -2.67 -2.73 -2.78 -2.82 -2.85 -2.90 -2.95 -2.99 -3.05 -3.10 -3.12 -3.22 -3.26 -3.32 -3.36 -3.41 -3.47 -3.54 -3.57 -3.62 -3.70 -3.74 -3.88 -3.91 -3.93 -3.98 -4.04 -4.10 -4.19 -4.26 -4.31
-9.03 -8.99 -8.98 -8.97 -8.93 -8.90 -8.85 -8.82 -8.74 -8.74 -8.77 -8.81 -8.75 -8.71 -8.68 -8.64 -8.61 -8.58 -8.44 -8.07 -7.62 -7.30 -6.96 -6.74 -6.58 -6.27 -5.89 -5.81 -5.86 -5.77 -5.65 -5.43 -5.33 -5.33 -5.21 -5.40 -5.29 -5.35 -5.07 -4.94 -5.06 -5.15 -5.19 -5.09 -5.11 -4.95 -4.86 -4.76 -4.65 -4.50 -4.36 -4.24 -4.12 -3.96 -3.76 -3.64 -3.52 -3.30 -3.27 -3.15 -3.01 -2.94 -2.91 -2.85 -2.83 -2.78 -2.77 -2.73 -2.68 -2.65 -2.65 -2.63 -2.62 -2.57 -2.58 -2.57 -2.65 -2.66 -2.70 -2.80 -2.87 -2.93 -2.98 -3.03 -3.07 -3.11 -3.15 -3.15 -3.14 -3.14 -3.14 -3.17 -3.17 -3.17 -3.16 -3.16 -3.18 -3.12 -3.07 -3.04 -2.99 -2.94 -2.87 -2.87 -2.83 -2.77 -2.70 -2.62 -2.59 -2.44 -2.55 -2.37 -2.32 -2.28 -2.19 -2.15 -2.06 -1.92 -1.76 -1.64 -1.55 -1.47 -1.38 -1.29 -1.18 -1.06 -0.96 -0.94 -0.93 -0.95 -0.94 -0.83 -0.73 -0.73 -0.71 -0.59 -0.66 -0.63 -0.54 -0.51 -0.45 -0.44 -0.42 -0.34 -0.33 -0.39 -0.34 -0.18 -0.18 -0.14 -0.11 -0.07 0.00 0.08 0.12 0.17 0.21 0.23 0.36 0.41 0.40 0.52 0.55 0.60 0.67 0.69 0.71 0.74 0.81 0.78 0.83 0.84 0.84 0.87 0.93 0.98 1.00 1.01 1.00 0.96 0.94 0.94 0.90 0.93 1.00 1.08 1.24 1.41 1.53 1.67 1.76 1.77 1.90 2.05 1.99 2.30 2.37 2.55 3.41 3.16 3.49 3.75 3.80 3.64 3.49 3.00 2.89 3.11 -9999.00 -9999.00 -9999.00 -9999.00 -9999.00 -9999.00 -9999.00 -9999.00 -9999.00 -9999.00 -9999.00 1.98 1.84 1.88 1.83 1.95 1.96 1.83 1.83 1.80 1.74 1.68 1.74 1.78 2.00 2.27 2.54 2.85 2.99 2.93 2.90 2.86 2.81 2.66 2.50 2.35 2.51 2.66 2.76 2.73 2.79 2.76 2.79 2.89 2.87 2.79 2.70 2.62 -9999.00 -9999.00 -9999.00 -9999.00 -9999.00 -9999.00 -9999.00 -9999.00 -9999.00 -9999.00 -9999.00 -9999.00 -9999.00 -9999.00 -9999.00 -9999.00 -9999.00 -9999.00 -9999.00 -9999.00 -9999.00 -9999.00 -9999.00 -9999.00 -9999.00 -9999.00 -9999.00 -9999.00 -9999.00 -9999.00 -9999.00 -9999.00 -9999.00 -9999.00 -9999.00 -9999.00 -9999.00 -9999.00 3.55 3.55 3.20 2.53 2.04 1.65 1.35 0.96 0.79 0.63 0.52 0.41 0.32 0.15 0.05 -0.04 -0.18 -0.30 -0.31 -0.41 -0.36 -0.46 -0.56 -0.56 -0.67 -0.74 -0.86 -0.98 -1.01 -1.14 -1.19 -1.31 -1.39 -1.47 -1.52 -1.58 -1.69 -1.77 -1.89 -2.01 -2.13 -2.17 -2.23 -2.26 -2.35 -2.39 -2.37 -2.41 -2.47 -2.52 -2.57 -2.62 -2.66 -2.70 -2.76 -2.80 -2.84 -2.88 -2.94 -2.98 -3.06 -3.10 -3.15 -3.20 -3.25 -3.30 -3.37 -3.41 -3.46 -3.50 -3.55 -3.59 -3.66 -3.80 -3.85 -3.87 -3.91 -3.98 -4.03 -4.12 -4.19
-8.97 -8.93 -8.92 -8.89 -8.86 -8.83 -8.77 -8.73 -8.78 -8.76 -8.76 -8.73 -8.69 -8.63 -8.58 -8.55 -8.51 -8.39 -8.17 -7.81 -7.51 -7.14 -6.79 -6.47 -6.05 -5.57 -5.37 -5.11 -5.21 -5.24 -5.25 -5.13 -4.86 -5.01 -4.88 -4.89 -4.71 -4.56 -4.41 -4.31 -4.54 -4.62 -4.52 -4.50 -4.56 -4.47 -4.35 -4.23 -4.14 -3.96 -3.83 -3.70 -3.62 -3.49 -3.27 -3.20 -3.02 -2.93 -2.85 -2.79 -2.70 -2.64 -2.63 -2.59 -2.59 -2.53 -2.52 -2.49 -2.49 -2.47 -2.48 -2.47 -2.52 -2.44 -2.46 -2.47 -2.49 -2.52 -2.56 -2.62 -2.72 -2.79 -2.84 -2.90 -2.95 -2.98 -3.03 -3.05 -3.06 -3.06 -3.07 -3.08 -3.07 -3.07 -3.07 -3.08 -3.05 -3.00 -2.96 -2.92 -2.88 -2.84 -2.77 -2.72 -2.66 -2.60 -2.56 -2.54 -2.60 -2.44 -2.29 -2.26 -2.19 -2.12 -2.10 -2.04 -1.88 -1.74 -1.66 -1.56 -1.48 -1.43 -1.26 -1.11 -1.05 -0.96 -0.85 -0.83 -0.83 -0.74 -0.74 -0.65 -0.62 -0.57 -0.54 -0.54 -0.51 -0.47 -0.48 -0.42 -0.36 -0.30 -0.25 -0.34 -0.25 -0.20 -0.22 -0.04 0.06 0.04 0.02 0.11 0.18 0.22 0.20 0.30 0.42 0.43 0.36 0.53 0.53 0.64 0.69 0.75 0.85 0.81 0.80 0.80 0.88 0.86 0.90 0.92 0.95 0.96 1.02 1.00 0.96 1.00 0.98 1.06 1.08 1.19 1.31 1.45 1.44 1.64 1.79 1.85 2.06 2.19 2.33 2.52 2.51 2.49 2.79 3.09 3.40 3.86 3.70 3.61 3.55 3.57 3.38 3.04 -9999.00 -9999.00 -9999.00 -9999.00 -9999.00 -9999.00 -9999.00 -9999.00 -9999.00 -9999.00 -9999.00 -9999.00 -9999.00 -9999.00 -9999.00 -9999.00 -9999.00 -9999.00 -9999.00 -9999.00 1.64 1.70 1.71 1.74 1.72 1.76 1.79 1.76 1.96 2.26 2.53 2.79 3.02 2.96 2.92 2.80 2.65 2.55 2.44 2.34 2.24 2.38 2.43 2.38 2.45 2.34 2.28 2.62 2.65 2.56 2.46 -9999.00 -9999.00 -9999.00 -9999.00 -9999.00 -9999.00 -9999.00 -9999.00 -9999.00 -9999.00 -9999.00 -9999.00 -9999.00 -9999.00 -9999.00 -9999.00 -9999.00 -9999.00 -9999.00 -9999.00 -9999.00 -9999.00 -9999.00 -9999.00 -9999.00 -9999.00 -9999.00 -9999.00 -9999.00 -9999.00 -9999.00 -9999.00 -9999.00 -9999.00 -9999.00 -9999.00 -9999.00 -9999.00 -9999.00 -9999.00 3.48 3.58 3.42 2.75 2.11 1.71 1.42 1.05 0.88 0.77 0.65 0.48 0.28 0.18 0.11 0.04 -0.10 -0.22 -0.24 -0.32 -0.35 -0.40 -0.49 -0.55 -0.57 -0.70 -0.73 -0.81 -0.90 -1.00 -1.09 -1.26 -1.37 -1.41 -1.49 -1.67 -1.71 -1.79 -1.88 -1.96 -2.04 -2.10 -2.14 -2.19 -2.22 -2.27 -2.30 -2.34 -2.42 -2.47 -2.52 -2.58 -2.61 -2.64 -2.69 -2.73 -2.77 -2.82 -2.91 -2.94 -2.97 -3.03 -3.09 -3.23 -3.24 -3.26 -3.30 -3.38 -3.40 -3.44 -3.47 -3.52 -3.57 -3.64 -3.69 -3.78 -3.82 -3.90 -3.97 -4.08
-8.91 -8.87 -8.83 -8.79 -8.77 -8.75 -8.69 -8.74 -8.74 -8.76 -8.68 -8.66 -8.64 -8.56 -8.50 -8.44 -8.33 -8.16 -7.64 -7.54 -7.23 -6.87 -6.49 -6.02 -5.51 -5.10 -4.92 -4.69 -4.48 -4.56 -4.70 -4.88 -4.57 -4.43 -4.33 -4.27 -4.23 -3.99 -3.80 -3.67 -3.83 -3.89 -3.91 -3.94 -3.93 -3.89 -3.79 -3.72 -3.60 -3.40 -3.29 -3.21 -3.09 -3.02 -2.90 -2.74 -2.69 -2.64 -2.57 -2.50 -2.44 -2.40 -2.35 -2.33 -2.32 -2.30 -2.31 -2.32 -2.31 -2.30 -2.29 -2.31 -2.32 -2.32 -2.33 -2.34 -2.35 -2.38 -2.41 -2.49 -2.56 -2.64 -2.70 -2.77 -2.83 -2.88 -2.90 -2.94 -2.97 -2.98 -2.98 -2.98 -2.98 -2.97 -2.98 -2.97 -2.91 -2.87 -2.82 -2.79 -2.77 -2.73 -2.66 -2.59 -2.51 -2.43 -2.39 -2.33 -2.28 -2.23 -2.18 -2.09 -2.05 -1.99 -1.87 -1.85 -1.76 -1.69 -1.65 -1.49 -1.40 -1.22 -1.21 -1.15 -0.97 -0.91 -0.79 -0.85 -0.72 -0.66 -0.62 -0.56 -0.55 -0.54 -0.44 -0.42 -0.39 -0.36 -0.44 -0.32 -0.36 -0.33 -0.35 -0.25 -0.20 -0.00 -0.01 0.01 0.17 0.17 0.20 0.22 0.27 0.30 0.33 0.49 0.52 0.51 0.55 0.58 0.65 0.72 0.76 0.78 0.83 0.85 0.83 0.87 0.89 0.90 0.95 1.02 1.04 1.05 1.09 1.08 1.17 1.28 1.46 1.57 1.71 1.73 1.85 1.85 2.07 2.26 2.34 2.49 2.58 2.76 3.03 3.08 3.21 3.56 3.74 3.87 3.77 3.55 3.46 3.33 3.40 3.16 -9999.00 -9999.00 -9999.00 -9999.00 -9999.00 -9999.00 -9999.00 -9999.00 -9999.00 -9999.00 -9999.00 -9999.00 -9999.00 -9999.00 -9999.00 -9999.00 -9999.00 -9999.00 -9999.00 -9999.00 -9999.00 -9999.00 -9999.00 -9999.00 -9999.00 -9999.00 -9999.00 1.72 1.81 1.79 2.02 2.30 2.56 2.83 3.01 2.95 2.84 2.76 2.66 2.55 2.44 2.34 2.24 2.22 2.19 2.14 2.08 2.09 2.17 2.32 2.33 2.23 -9999.00 -9999.00 -9999.00 -9999.00 -9999.00 -9999.00 -9999.00 -9999.00 -9999.00 -9999.00 -9999.00 -9999.00 -9999.00 -9999.00 -9999.00 -9999.00 -9999.00 -9999.00 -9999.00 -9999.00 -9999.00 -9999.00 -9999.00 -9999.00 -9999.00 -9999.00 -9999.00 -9999.00 -9999.00 -9999.00 -9999.00 -9999.00 -9999.00 -9999.00 -9999.00 -9999.00 -9999.00 -9999.00 -9999.00 -9999.00 -9999.00 -9999.00 3.65 3.82 3.62 2.97 2.13 1.74 1.49 1.10 1.00 0.82 0.62 0.42 0.30 0.23 0.17 0.10 -0.06 -0.22 -0.31 -0.35 -0.36 -0.39 -0.41 -0.52 -0.55 -0.64 -0.71 -0.83 -0.89 -0.94 -1.00 -1.13 -1.31 -1.37 -1.42 -1.56 -1.74 -1.80 -1.89 -1.96 -2.02 -2.00 -2.04 -2.09 -2.13 -2.19 -2.24 -2.29 -2.34 -2.41 -2.47 -2.49 -2.55 -2.58 -2.63 -2.67 -2.70 -2.76 -2.82 -2.88 -2.93 -2.99 -3.05 -3.07 -3.18 -3.22 -3.28 -3.30 -3.33 -3.37 -3.41 -3.49 -3.52 -3.56 -3.61 -3.63 -3.70 -3.80 -3.93
-8.83 -8.78 -8.73 -8.70 -8.67 -8.65 -8.67 -8.66 -8.66 -8.64 -8.62 -8.56 -8.56 -8.50 -8.37 -8.24 -8.09 -7.73 -7.26 -7.09 -6.72 -6.24 -6.01 -5.57 -5.01 -4.65 -4.33 -4.17 -3.95 -3.95 -3.98 -4.05 -3.91 -3.72 -3.52 -3.50 -3.49 -3.28 -3.26 -3.06 -3.18 -3.28 -3.32 -3.36 -3.37 -3.39 -3.32 -3.20 -3.13 -2.96 -2.98 -2.84 -2.73 -2.67 -2.56 -2.55 -2.46 -2.38 -2.34 -2.24 -2.20 -2.16 -2.15 -2.11 -2.09 -2.11 -2.11 -2.13 -2.13 -2.13 -2.16 -2.15 -2.15 -2.16 -2.19 -2.21 -2.24 -2.24 -2.29 -2.38 -2.42 -2.50 -2.56 -2.63 -2.71 -2.76 -2.79 -2.84 -2.86 -2.89 -2.89 -2.90 -2.89 -2.88 -2.88 -2.84 -2.80 -2.75 -2.71 -2.68 -2.65 -2.64 -2.57 -2.49 -2.41 -2.35 -2.30 -2.25 -2.20 -2.11 -2.01 -1.95 -1.91 -1.90 -1.76 -1.80 -1.74 -1.62 -1.48 -1.39 -1.30 -1.20 -1.18 -1.13 -0.91 -0.87 -0.73 -0.62 -0.60 -0.55 -0.54 -0.51 -0.49 -0.41 -0.31 -0.28 -0.35 -0.38 -0.23 -0.22 -0.19 -0.16 -0.10 -0.02 -0.02 0.20 0.14 0.15 0.22 0.32 0.33 0.37 0.38 0.43 0.45 0.57 0.63 0.66 0.61 0.63 0.57 0.67 0.73 0.80 0.83 0.87 0.86 0.82 0.87 0.94 1.08 1.25 1.35 1.49 1.52 1.59 1.70 1.78 2.00 2.12 2.27 2.37 2.48 2.60 2.81 3.01 3.13 3.21 3.62 3.70 3.93 3.85 3.86 3.69 3.47 3.46 3.42 3.39 3.32 3.21 -9999.00 -9999.00 -9999.00 -9999.00 -9999.00 -9999.00 -9999.00 -9999.00 -9999.00 -9999.00 -9999.00 -9999.00 -9999.00 -9999.00 -9999.00 -9999.00 -9999.00 -9999.00 -9999.00 -9999.00 -9999.00 -9999.00 -9999.00 -9999.00 -9999.00 -9999.00 -9999.00 -9999.00 -9999.00 -9999.00 -9999.00 -9999.00 -9999.00 -9999.00 -9999.00 -9999.00 3.06 2.97 2.89 2.76 2.65 2.55 2.44 2.34 2.24 2.14 2.04 2.01 2.04 2.11 2.27 2.27 -9999.00 -9999.00 -9999.00 -9999.00 -9999.00 -9999.00 -9999.00 -9999.00 -9999.00 -9999.00 -9999.00 -9999.00 -9999.00 -9999.00 -9999.00 -9999.00 -9999.00 -9999.00 -9999.00 -9999.00 -9999.00 -9999.00 -9999.00 -9999.00 -9999.00 -9999.00 -9999.00 -9999.00 -9999.00 -9999.00 -9999.00 -9999.00 -9999.00 -9999.00 -9999.00 -9999.00 -9999.00 -9999.00 -9999.00 -9999.00 -9999.00 -9999.00 -9999.00 -9999.00 -9999.00 3.41 3.82 3.77 3.19 2.38 1.82 1.62 1.25 1.00 0.80 0.51 0.39 0.33 0.27 0.21 0.04 -0.16 -0.22 -0.29 -0.35 -0.39 -0.42 -0.43 -0.47 -0.54 -0.63 -0.68 -0.72 -0.87 -0.95 -0.95 -1.07 -1.16 -1.26 -1.38 -1.46 -1.62 -1.77 -1.73 -1.86 -1.95 -1.93 -1.96 -1.98 -2.06 -2.12 -2.18 -2.22 -2.28 -2.32 -2.37 -2.42 -2.47 -2.52 -2.55 -2.60 -2.65 -2.71 -2.78 -2.84 -2.89 -2.95 -3.00 -3.06 -3.11 -3.19 -3.21 -3.31 -3.37 -3.33 -3.40 -3.45 -3.48 -3.52 -3.55 -3.56 -3.66 -3.78
-8.75 -8.71 -8.65 -8.60 -8.60 -8.58 -8.62 -8.60 -8.57 -8.55 -8.52 -8.49 -8.46 -8.36 -8.15 -8.01 -7.78 -7.43 -6.98 -6.64 -6.31 -5.74 -5.33 -5.11 -4.60 -4.12 -3.86 -3.62 -3.55 -3.52 -3.48 -3.36 -3.19 -3.09 -2.99 -2.92 -2.83 -2.76 -2.75 -2.66 -2.60 -2.67 -2.72 -2.84 -2.85 -2.88 -2.86 -2.80 -2.78 -2.65 -2.53 -2.46 -2.41 -2.38 -2.33 -2.29 -2.24 -2.17 -2.12 -2.06 -1.98 -1.97 -1.94 -1.91 -1.90 -1.93 -1.93 -1.93 -1.96 -1.93 -1.94 -1.96 -1.99 -2.01 -2.04 -2.07 -2.09 -2.13 -2.17 -2.20 -2.28 -2.36 -2.42 -2.49 -2.57 -2.63 -2.68 -2.73 -2.76 -2.81 -2.79 -2.80 -2.79 -2.77 -2.74 -2.71 -2.67 -2.64 -2.59 -2.56 -2.54 -2.51 -2.48 -2.39 -2.30 -2.26 -2.21 -2.16 -2.07 -2.02 -1.89 -1.97 -1.83 -1.80 -1.73 -1.70 -1.57 -1.50 -1.34 -1.25 -1.24 -1.11 -1.04 -0.96 -0.76 -0.82 -0.70 -0.59 -0.49 -0.50 -0.48 -0.42 -0.34 -0.30 -0.29 -0.19 -0.24 -0.22 -0.04 -0.01 -0.04 -0.02 -0.00 0.06 0.09 0.17 0.18 0.28 0.34 0.50 0.46 0.49 0.54 0.56 0.63 0.66 0.70 0.58 0.52 0.54 0.59 0.73 0.78 0.87 0.91 0.89 0.99 1.14 1.39 1.53 1.62 1.70 1.92 2.02 1.99 2.24 2.60 2.47 2.71 2.84 3.04 3.14 3.20 3.45 3.49 3.61 3.91 4.06 4.09 3.94 3.83 3.65 3.53 3.42 3.36 -9999.00 -9999.00 -9999.00 -9999.00 -9999.00 -9999.00 -9999.00 -9999.00 -9999.00 -9999.00 -9999.00 -9999.00 -9999.00 -9999.00 -9999.00 -9999.00 -9999.00 -9999.00 -9999.00 -9999.00 -9999.00 -9999.00 -9999.00 -9999.00 -9999.00 -9999.00 -9999.00 -9999.00 -9999.00 -9999.00 -9999.00 -9999.00 -9999.00 -9999.00 -9999.00 -9999.00 -9999.00 -9999.00 -9999.00 -9999.00 -9999.00 -9999.00 -9999.00 -9999.00 -9999.00 -9999.00 -9999.00 -9999.00 -9999.00 -9999.00 -9999.00 -9999.00 -9999.00 -9999.00 -9999.00 -9999.00 -9999.00 -9999.00 -9999.00 -9999.00 -9999.00 -9999.00 -9999.00 -9999.00 -9999.00 -9999.00 -9999.00 -9999.00 -9999.00 -9999.00 -9999.00 -9999.00 -9999.00 -9999.00 -9999.00 -9999.00 -9999.00 -9999.00 -9999.00 -9999.00 -9999.00 -9999.00 -9999.00 -9999.00 -9999.00 -9999.00 -9999.00 -9999.00 -9999.00 -9999.00 -9999.00 -9999.00 -9999.00 -9999.00 -9999.00 -9999.00 -9999.00 -9999.00 -9999.00 -9999.00 -9999.00 -9999.00 -9999.00 3.16 3.51 3.73 3.31 2.58 1.95 1.62 1.30 1.08 0.83 0.59 0.45 0.35 0.29 0.09 -0.01 -0.08 -0.13 -0.24 -0.34 -0.37 -0.44 -0.39 -0.47 -0.53 -0.61 -0.65 -0.69 -0.72 -0.84 -0.94 -1.00 -1.12 -1.19 -1.27 -1.37 -1.48 -1.57 -1.70 -1.76 -1.82 -1.85 -1.85 -1.92 -1.99 -2.07 -2.12 -2.16 -2.20 -2.25 -2.30 -2.34 -2.40 -2.44 -2.52 -2.57 -2.62 -2.67 -2.73 -2.79 -2.85 -2.90 -2.97 -3.02 -3.07 -3.11 -3.20 -3.29 -3.26 -3.28 -3.37 -3.41 -3.43 -3.45 -3.47 -3.55 -3.65
-8.68 -8.61 -8.58 -8.54 -8.55 -8.55 -8.53 -8.51 -8.50 -8.44 -8.40 -8.35 -8.25 -8.14 -7.99 -7.65 -7.22 -6.92 -6.50 -6.06 -5.55 -5.00 -4.56 -4.27 -3.94 -3.68 -3.49 -3.24 -3.19 -3.15 -3.07 -2.96 -2.99 -2.78 -2.64 -2.55 -2.51 -2.48 -2.42 -2.41 -2.35 -2.37 -2.48 -2.51 -2.51 -2.45 -2.47 -2.43 -2.43 -2.34 -2.28 -2.23 -2.18 -2.15 -2.11 -2.07 -2.01 -1.98 -1.92 -1.87 -1.83 -1.77 -1.77 -1.76 -1.74 -1.76 -1.72 -1.73 -1.73 -1.72 -1.75 -1.80 -1.84 -1.86 -1.89 -1.92 -1.97 -2.02 -2.04 -2.09 -2.13 -2.23 -2.30 -2.35 -2.43 -2.48 -2.54 -2.60 -2.66 -2.67 -2.68 -2.68 -2.67 -2.65 -2.61 -2.57 -2.53 -2.50 -2.47 -2.45 -2.43 -2.40 -2.36 -2.32 -2.21 -2.17 -2.12 -2.07 -2.02 -1.96 -1.95 -1.81 -1.75 -1.73 -1.65 -1.52 -1.38 -1.37 -1.30 -1.20 -1.18 -1.11 -1.05 -0.95 -0.84 -0.72 -0.62 -0.52 -0.47 -0.43 -0.34 -0.32 -0.31 -0.32 -0.27 -0.11 -0.07 -0.05 0.03 -0.01 0.09 0.10 0.16 0.20 0.18 0.32 0.35 0.43 0.50 0.57 0.57 0.62 0.66 0.70 0.70 0.75 0.64 0.57 0.66 0.64 0.71 0.83 0.95 0.99 1.16 1.41 1.46 1.62 1.84 2.03 2.18 2.22 2.55 2.72 2.93 3.07 3.27 3.47 3.41 3.34 3.44 3.73 3.84 3.92 3.80 3.88 4.07 3.85 3.78 3.84 3.72 3.45 3.25 -9999.00 -9999.00 -9999.00 -9999.00 -9999.00 -9999.00 -9999.00 -9999.00 -9999.00 -9999.00 -9999.00 -9999.00 -9999.00 -9999.00 -9999.00 -9999.00 -9999.00 -9999.00 -9999.00 -9999.00 -9999.00 -9999.00 -9999.00 -9999.00 -9999.00 -9999.00 -9999.00 -9999.00 -9999.00 -9999.00 -9999.00 -9999.00 -9999.00 -9999.00 -9999.00 -9999.00 -9999.00 -9999.00 -9999.00 -9999.00 -9999.00 -9999.00 -9999.00 -9999.00 -9999.00 -9999.00 -9999.00 -9999.00 -9999.00 -9999.00 -9999.00 -9999.00 -9999.00 -9999.00 -9999.00 -9999.00 -9999.00 -9999.00 -9999.00 -9999.00 -9999.00 -9999.00 -9999.00 -9999.00 -9999.00 -9999.00 -9999.00 -9999.00 -9999.00 -9999.00 -9999.00 -9999.00 -9999.00 -9999.00 -9999.00 -9999.00 -9999.00 -9999.00 -9999.00 -9999.00 -9999.00 -9999.00 -9999.00 -9999.00 -9999.00 -9999.00 -9999.00 -9999.00 -9999.00 -9999.00 -9999.00 -9999.00 -9999.00 -9999.00 -9999.00 -9999.00 -9999.00 -9999.00 -9999.00 -9999.00 -9999.00 -9999.00 -9999.00 -9999.00 -9999.00 -9999.00 2.92 3.21 3.77 3.34 2.80 2.18 1.77 1.38 1.02 0.86 0.69 0.53 0.40 0.20 0.08 0.12 0.06 -0.06 -0.18 -0.25 -0.31 -0.32 -0.35 -0.47 -0.52 -0.58 -0.62 -0.68 -0.75 -0.82 -0.90 -1.02 -1.15 -1.18 -1.20 -1.30 -1.38 -1.42 -1.47 -1.65 -1.70 -1.77 -1.81 -1.83 -1.90 -1.99 -2.04 -2.08 -2.13 -2.18 -2.25 -2.28 -2.29 -2.37 -2.46 -2.55 -2.60 -2.65 -2.70 -2.75 -2.80 -2.85 -2.91 -2.96 -3.01 -3.04 -3.13 -3.19 -3.23 -3.26 -3.25 -3.29 -3.21 -3.32 -3.43 -3.50
-8.66 -8.57 -8.51 -8.50 -8.48 -8.46 -8.46 -8.43 -8.39 -8.37 -8.26 -8.17 -8.06 -7.95 -7.68 -7.18 -6.59 -6.20 -5.63 -4.92 -4.61 -4.07 -3.56 -3.45 -3.22 -3.27 -3.12 -2.94 -2.82 -2.82 -2.74 -2.63 -2.60 -2.51 -2.46 -2.37 -2.33 -2.29 -2.23 -2.25 -2.18 -2.15 -2.22 -2.22 -2.21 -2.18 -2.18 -2.15 -2.14 -2.12 -2.07 -2.02 -1.97 -1.93 -1.89 -1.85 -1.82 -1.78 -1.72 -1.68 -1.65 -1.63 -1.60 -1.58 -1.55 -1.54 -1.52 -1.51 -1.50 -1.52 -1.55 -1.59 -1.64 -1.68 -1.72 -1.76 -1.81 -1.87 -1.92 -1.97 -2.02 -2.08 -2.18 -2.23 -2.28 -2.31 -2.37 -2.41 -2.45 -2.47 -2.48 -2.49 -2.50 -2.52 -2.47 -2.43 -2.39 -2.35 -2.32 -2.31 -2.30 -2.28 -2.26 -2.22 -2.18 -2.11 -2.06 -2.01 -1.96 -1.87 -1.80 -1.74 -1.71 -1.58 -1.50 -1.44 -1.33 -1.35 -1.34 -1.22 -1.14 -1.06 -0.94 -0.81 -0.77 -0.67 -0.63 -0.46 -0.48 -0.33 -0.32 -0.25 -0.18 -0.14 -0.11 -0.11 -0.03 0.03 0.09 0.17 0.19 0.23 0.25 0.29 0.34 0.45 0.43 0.51 0.57 0.63 0.67 0.78 0.69 0.73 0.64 0.60 0.62 0.70 0.83 0.77 0.80 1.05 1.34 1.47 1.68 1.82 2.06 2.27 2.46 2.56 3.07 3.31 3.40 3.66 3.81 3.56 3.81 3.98 3.94 4.07 4.03 4.00 4.25 4.06 4.06 4.15 4.12 3.95 3.78 3.98 3.95 3.71 -9999.00 -9999.00 -9999.00 -9999.00 -9999.00 -9999.00 -9999.00 -9999.00 -9999.00 -9999.00 -9999.00 -9999.00 -9999.00 -9999.00 -9999.00 -9999.00 -9999.00 -9999.00 -9999.00 -9999.00 -9999.00 -9999.00 -9999.00 -9999.00 -9999.00 -9999.00 -9999.00 -9999.00 -9999.00 -9999.00 -9999.00 -9999.00 -9999.00 -9999.00 -9999.00 -9999.00 -9999.00 -9999.00 -9999.00 -9999.00 -9999.00 -9999.00 -9999.00 -9999.00 -9999.00 -9999.00 -9999.00 -9999.00 -9999.00 -9999.00 -9999.00 -9999.00 -9999.00 -9999.00 -9999.00 -9999.00 -9999.00 -9999.00 -9999.00 -9999.00 -9999.00 -9999.00 -9999.00 -9999.00 -9999.00 -9999.00 -9999.00 -9999.00 -9999.00 -9999.00 -9999.00 -9999.00 -9999.00 -9999.00 -9999.00 -9999.00 -9999.00 -9999.00 -9999.00 -9999.00 -9999.00 -9999.00 -9999.00 -9999.00 -9999.00 -9999.00 -9999.00 -9999.00 -9999.00 -9999.00 -9999.00 -9999.00 -9999.00 -9999.00 -9999.00 -9999.00 -9999.00 -9999.00 -9999.00 -9999.00 -9999.00 -9999.00 -9999.00 -9999.00 -9999.00 -9999.00 -9999.00 -9999.00 2.67 2.90 3.72 3.49 2.99 2.35 1.75 1.43 1.13 0.96 0.80 0.57 0.44 0.29 0.20 0.23 0.27 0.13 -0.06 -0.28 -0.30 -0.30 -0.30 -0.41 -0.52 -0.53 -0.60 -0.64 -0.72 -0.80 -0.88 -0.95 -1.09 -1.26 -1.24 -1.21 -1.30 -1.29 -1.28 -1.40 -1.57 -1.64 -1.69 -1.74 -1.80 -1.86 -1.97 -2.01 -2.06 -2.10 -2.20 -2.20 -2.24 -2.31 -2.39 -2.49 -2.57 -2.62 -2.70 -2.75 -2.80 -2.84 -2.87 -2.90 -2.92 -3.05 -3.09 -3.10 -3.12 -3.16 -3.19 -3.18 -3.18 -3.27 -3.35
-8.60 -8.58 -8.54 -8.47 -8.40 -8.38 -8.35 -8.33 -8.25 -8.18 -8.13 -8.03 -7.85 -7.56 -7.17 -6.69 -6.07 -5.37 -4.68 -4.02 -3.59 -3.54 -3.08 -2.96 -2.87 -2.80 -2.75 -2.66 -2.46 -2.49 -2.41 -2.40 -2.36 -2.31 -2.28 -2.22 -2.16 -2.11 -2.08 -2.04 -2.01 -1.99 -1.95 -1.98 -1.99 -1.97 -1.93 -1.93 -1.91 -1.87 -1.85 -1.80 -1.76 -1.73 -1.67 -1.63 -1.60 -1.55 -1.54 -1.49 -1.45 -1.42 -1.36 -1.35 -1.34 -1.32 -1.32 -1.32 -1.32 -1.37 -1.39 -1.39 -1.43 -1.47 -1.51 -1.57 -1.66 -1.73 -1.79 -1.84 -1.90 -1.95 -2.05 -2.07 -2.11 -2.14 -2.18 -2.19 -2.25 -2.27 -2.28 -2.30 -2.31 -2.33 -2.32 -2.28 -2.24 -2.21 -2.19 -2.19 -2.17 -2.15 -2.13 -2.11 -2.08 -2.02 -1.99 -1.95 -1.90 -1.82 -1.73 -1.66 -1.57 -1.52 -1.42 -1.36 -1.34 -1.28 -1.26 -1.15 -0.98 -0.88 -0.84 -0.76 -0.69 -0.58 -0.50 -0.47 -0.40 -0.26 -0.25 -0.18 -0.12 -0.07 -0.03 0.01 0.13 0.17 0.21 0.30 0.25 0.30 0.33 0.37 0.48 0.61 0.57 0.61 0.65 0.67 0.66 0.71 0.68 0.72 0.67 0.75 0.83 0.83 0.91 1.10 1.40 1.48 1.72 1.91 2.24 2.57 2.71 3.15 3.82 3.56 3.69 3.70 3.90 3.85 3.87 3.94 4.03 4.08 3.91 3.88 4.05 4.19 4.26 4.42 4.34 4.31 4.21 3.97 4.07 4.10 3.90 -9999.00 -9999.00 -9999.00 -9999.00 -9999.00 -9999.00 -9999.00 -9999.00 -9999.00 -9999.00 -9999.00 -9999.00 -9999.00 -9999.00 -9999.00 -9999.00 -9999.00 -9999.00 -9999.00 -9999.00 -9999.00 -9999.00 -9999.00 -9999.00 -9999.00 -9999.00 -9999.00 -9999.00 -9999.00 -9999.00 -9999.00 -9999.00 -9999.00 -9999.00 -9999.00 -9999.00 -9999.00 -9999.00 -9999.00 -9999.00 -9999.00 -9999.00 -9999.00 -9999.00 -9999.00 -9999.00 -9999.00 -9999.00 -9999.00 -9999.00 -9999.00 -9999.00 -9999.00 -9999.00 -9999.00 -9999.00 -9999.00 -9999.00 -9999.00 -9999.00 -9999.00 -9999.00 -9999.00 -9999.00 -9999.00 -9999.00 -9999.00 -9999.00 -9999.00 -9999.00 -9999.00 -9999.00 -9999.00 -9999.00 -9999.00 -9999.00 -9999.00 -9999.00 -9999.00 -9999.00 -9999.00 -9999.00 -9999.00 -9999.00 -9999.00 -9999.00 -9999.00 -9999.00 -9999.00 -9999.00 -9999.00 -9999.00 -9999.00 -9999.00 -9999.00 -9999.00 -9999.00 -9999.00 -9999.00 -9999.00 -9999.00 -9999.00 -9999.00 -9999.00 -9999.00 -9999.00 -9999.00 -9999.00 -9999.00 -9999.00 2.65 2.68 3.64 3.84 3.14 2.40 1.84 1.45 1.19 0.93 0.74 0.60 0.50 0.35 0.31 0.35 0.38 0.04 -0.04 -0.14 -0.25 -0.26 -0.27 -0.37 -0.39 -0.47 -0.59 -0.61 -0.69 -0.77 -0.85 -0.93 -1.06 -1.17 -1.16 -1.19 -1.21 -1.21 -1.21 -1.31 -1.42 -1.53 -1.57 -1.63 -1.74 -1.81 -1.88 -1.94 -1.98 -2.03 -2.05 -2.11 -2.18 -2.23 -2.32 -2.42 -2.55 -2.49 -2.61 -2.66 -2.71 -2.79 -2.83 -2.92 -2.95 -2.96 -2.98 -3.00 -3.03 -3.07 -3.12 -3.09 -3.16 -3.25
-8.58 -8.59 -8.52 -8.44 -8.33 -8.29 -8.24 -8.15 -8.09 -8.02 -7.93 -7.64 -7.50 -6.96 -6.43 -5.89 -5.24 -4.63 -3.79 -3.12 -2.43 -2.70 -2.65 -2.52 -2.46 -2.43 -2.39 -2.24 -2.21 -2.23 -2.18 -2.18 -2.17 -2.13 -2.12 -2.09 -2.02 -1.97 -1.96 -1.91 -1.89 -1.87 -1.84 -1.81 -1.81 -1.79 -1.76 -1.74 -1.71 -1.70 -1.65 -1.60 -1.56 -1.51 -1.49 -1.44 -1.41 -1.36 -1.33 -1.27 -1.22 -1.19 -1.15 -1.13 -1.11 -1.12 -1.11 -1.12 -1.12 -1.15 -1.17 -1.20 -1.22 -1.26 -1.32 -1.40 -1.47 -1.56 -1.63 -1.69 -1.76 -1.80 -1.87 -1.92 -1.94 -1.96 -2.00 -2.04 -2.05 -2.07 -2.08 -2.11 -2.13 -2.14 -2.14 -2.12 -2.09 -2.08 -2.06 -2.06 -2.04 -2.01 -2.00 -2.01 -1.97 -1.91 -1.90 -1.85 -1.78 -1.69 -1.62 -1.53 -1.48 -1.33 -1.30 -1.33 -1.32 -1.21 -1.02 -0.90 -0.91 -0.82 -0.74 -0.66 -0.59 -0.42 -0.41 -0.39 -0.32 -0.24 -0.15 -0.11 -0.06 -0.01 0.05 0.12 0.19 0.28 0.32 0.38 0.36 0.42 0.48 0.55 0.60 0.63 0.66 0.69 0.69 0.63 0.57 0.66 0.67 0.75 0.87 0.93 0.99 1.31 1.49 1.58 1.78 1.95 2.34 2.71 2.98 3.40 3.96 3.82 3.50 3.60 3.21 3.70 3.85 3.94 3.97 4.02 4.27 4.08 3.64 3.83 3.79 3.94 4.15 4.38 4.34 4.33 4.28 4.05 4.14 3.91 -9999.00 -9999.00 -9999.00 -9999.00 -9999.00 -9999.00 -9999.00 -9999.00 -9999.00 -9999.00 -9999.00 -9999.00 -9999.00 -9999.00 -9999.00 -9999.00 -9999.00 -9999.00 -9999.00 -9999.00 -9999.00 -9999.00 -9999.00 -9999.00 -9999.00 -9999.00 -9999.00 -9999.00 -9999.00 -9999.00 -9999.00 -9999.00 -9999.00 -9999.00 -9999.00 -9999.00 -9999.00 -9999.00 -9999.00 -9999.00 -9999.00 -9999.00 -9999.00 -9999.00 -9999.00 -9999.00 -9999.00 -9999.00 -9999.00 -9999.00 -9999.00 -9999.00 -9999.00 -9999.00 -9999.00 -9999.00 -9999.00 -9999.00 -9999.00 -9999.00 -9999.00 -9999.00 -9999.00 -9999.00 -9999.00 -9999.00 -9999.00 -9999.00 -9999.00 -9999.00 -9999.00 -9999.00 -9999.00 -9999.00 -9999.00 -9999.00 -9999.00 -9999.00 -9999.00 -9999.00 -9999.00 -9999.00 -9999.00 -9999.00 -9999.00 -9999.00 -9999.00 -9999.00 -9999.00 -9999.00 -9999.00 -9999.00 -9999.00 -9999.00 -9999.00 -9999.00 -9999.00 -9999.00 -9999.00 -9999.00 -9999.00 -9999.00 -9999.00 -9999.00 -9999.00 -9999.00 -9999.00 -9999.00 -9999.00 -9999.00 -9999.00 -9999.00 2.67 2.66 3.27 3.75 3.24 2.58 2.00 1.53 1.30 0.98 0.84 0.69 0.56 0.41 0.43 0.42 0.34 0.15 0.04 -0.06 -0.15 -0.36 -0.23 -0.25 -0.34 -0.43 -0.56 -0.58 -0.66 -0.75 -0.77 -0.86 -0.97 -1.07 -1.17 -1.22 -1.17 -1.15 -1.14 -1.22 -1.37 -1.44 -1.48 -1.56 -1.69 -1.76 -1.81 -1.87 -1.90 -1.91 -2.02 -2.02 -2.10 -2.17 -2.24 -2.35 -2.38 -2.46 -2.48 -2.50 -2.57 -2.67 -2.73 -2.76 -2.81 -2.88 -2.88 -2.89 -2.95 -3.02 -3.09 -3.06 -3.14
-8.52 -8.54 -8.47 -8.36 -8.29 -8.18 -8.09 -8.03 -7.93 -7.85 -7.64 -7.30 -7.00 -6.33 -5.73 -5.18 -4.40 -3.61 -2.83 -2.12 -1.46 -1.71 -2.15 -2.09 -1.94 -1.92 -1.92 -1.84 -1.96 -2.04 -2.00 -2.00 -1.99 -1.97 -1.95 -1.95 -1.89 -1.88 -1.82 -1.76 -1.75 -1.74 -1.70 -1.67 -1.67 -1.64 -1.63 -1.58 -1.55 -1.52 -1.46 -1.44 -1.38 -1.35 -1.28 -1.26 -1.22 -1.14 -1.09 -1.06 -0.98 -0.94 -0.93 -0.96 -0.91 -0.90 -0.92 -0.91 -0.92 -0.96 -1.00 -1.01 -1.01 -1.08 -1.14 -1.21 -1.30 -1.39 -1.46 -1.52 -1.58 -1.64 -1.69 -1.76 -1.78 -1.79 -1.83 -1.86 -1.87 -1.89 -1.91 -1.92 -1.94 -1.94 -1.94 -1.95 -1.92 -1.92 -1.91 -1.91 -1.89 -1.88 -1.87 -1.85 -1.86 -1.81 -1.80 -1.73 -1.61 -1.54 -1.57 -1.57 -1.47 -1.42 -1.38 -1.19 -1.08 -0.94 -0.95 -0.89 -0.80 -0.72 -0.64 -0.56 -0.49 -0.39 -0.35 -0.23 -0.18 -0.09 -0.03 -0.07 -0.02 0.08 0.16 0.22 0.32 0.33 0.41 0.43 0.49 0.56 0.58 0.60 0.64 0.67 0.68 0.64 0.71 0.70 0.68 0.77 0.81 0.91 1.04 1.37 1.52 1.70 1.83 2.21 2.45 2.74 3.17 4.15 3.99 3.83 3.51 3.65 3.58 3.63 3.57 3.71 3.68 4.05 4.11 3.85 3.79 3.74 3.56 3.50 3.68 3.91 4.11 4.33 4.35 4.32 4.26 4.20 3.85 -9999.00 -9999.00 -9999.00 -9999.00 -9999.00 -9999.00 -9999.00 -9999.00 -9999.00 -9999.00 -9999.00 -9999.00 -9999.00 -9999.00 -9999.00 -9999.00 -9999.00 -9999.00 -9999.00 -9999.00 -9999.00 -9999.00 -9999.00 -9999.00 -9999.00 -9999.00 -9999.00 -9999.00 -9999.00 -9999.00 -9999.00 -9999.00 -9999.00 -9999.00 -9999.00 -9999.00 -9999.00 -9999.00 -9999.00 -9999.00 -9999.00 -9999.00 -9999.00 -9999.00 -9999.00 -9999.00 -9999.00 -9999.00 -9999.00 -9999.00 -9999.00 -9999.00 -9999.00 -9999.00 -9999.00 -9999.00 -9999.00 -9999.00 -9999.00 -9999.00 -9999.00 -9999.00 -9999.00 -9999.00 -9999.00 -9999.00 -9999.00 -9999.00 -9999.00 -9999.00 -9999.00 -9999.00 -9999.00 -9999.00 -9999.00 -9999.00 -9999.00 -9999.00 -9999.00 -9999.00 -9999.00 -9999.00 -9999.00 -9999.00 -9999.00 -9999.00 -9999.00 -9999.00 -9999.00 -9999.00 -9999.00 -9999.00 -9999.00 -9999.00 -9999.00 -9999.00 -9999.00 -9999.00 -9999.00 -9999.00 -9999.00 -9999.00 -9999.00 -9999.00 -9999.00 -9999.00 -9999.00 -9999.00 -9999.00 -9999.00 -9999.00 -9999.00 -9999.00 -9999.00 2.66 2.66 3.15 3.80 3.41 2.89 2.21 1.67 1.39 1.05 0.90 0.65 0.57 0.51 0.41 0.35 0.28 0.18 0.07 0.12 -0.11 -0.09 -0.10 -0.18 -0.32 -0.44 -0.50 -0.53 -0.66 -0.63 -0.67 -0.74 -0.86 -0.97 -1.07 -1.17 -1.19 -1.15 -1.09 -1.14 -1.28 -1.35 -1.46 -1.50 -1.61 -1.69 -1.75 -1.81 -1.78 -1.75 -1.89 -2.01 -1.99 -2.09 -2.20 -2.29 -2.31 -2.35 -2.37 -2.36 -2.38 -2.52 -2.59 -2.63 -2.67 -2.71 -2.84 -2.79 -2.83 -2.87 -2.94 -2.99
-8.45 -8.39 -8.35 -8.29 -8.20 -8.08 -7.99 -7.88 -7.82 -7.53 -7.13 -6.58 -6.16 -5.64 -5.23 -4.87 -3.76 -2.78 -1.90 -1.04 -1.55 -1.45 -1.30 -1.38 -1.49 -1.42 -1.41 -1.47 -1.58 -1.75 -1.81 -1.82 -1.81 -1.81 -1.80 -1.81 -1.76 -1.72 -1.72 -1.67 -1.63 -1.67 -1.62 -1.55 -1.54 -1.51 -1.50 -1.46 -1.41 -1.36 -1.30 -1.24 -1.21 -1.16 -1.10 -1.07 -1.01 -0.92 -0.89 -0.84 -0.81 -0.80 -0.82 -0.85 -0.79 -0.80 -0.80 -0.78 -0.79 -0.81 -0.83 -0.83 -0.86 -0.93 -0.96 -1.01 -1.12 -1.23 -1.32 -1.38 -1.41 -1.48 -1.53 -1.59 -1.61 -1.62 -1.65 -1.67 -1.69 -1.72 -1.73 -1.74 -1.75 -1.76 -1.77 -1.78 -1.77 -1.76 -1.77 -1.76 -1.74 -1.74 -1.71 -1.70 -1.69 -1.64 -1.60 -1.53 -1.53 -1.53 -1.51 -1.45 -1.33 -1.22 -1.09 -0.98 -0.93 -0.90 -0.81 -0.75 -0.71 -0.64 -0.53 -0.45 -0.41 -0.30 -0.18 -0.10 -0.02 0.09 0.08 0.02 0.07 0.14 0.20 0.29 0.37 0.40 0.45 0.52 0.55 0.65 0.60 0.64 0.63 0.63 0.63 0.64 0.74 0.72 0.76 0.95 1.21 1.47 1.56 1.75 1.97 2.26 2.57 3.00 3.37 3.90 3.72 3.77 3.72 3.74 3.63 3.67 3.73 3.68 3.56 3.55 3.56 3.75 3.71 3.61 3.51 3.41 3.23 3.25 3.28 3.56 3.85 4.11 4.26 4.28 4.05 3.86 -9999.00 -9999.00 -9999.00 -9999.00 -9999.00 -9999.00 -9999.00 -9999.00 -9999.00 -9999.00 -9999.00 -9999.00 -9999.00 -9999.00 -9999.00 -9999.00 -9999.00 -9999.00 -9999.00 -9999.00 -9999.00 -9999.00 -9999.00 -9999.00 -9999.00 -9999.00 -9999.00 -9999.00 -9999.00 -9999.00 -9999.00 -9999.00 -9999.00 -9999.00 -9999.00 -9999.00 -9999.00 -9999.00 -9999.00 -9999.00 -9999.00 -9999.00 -9999.00 -9999.00 -9999.00 -9999.00 -9999.00 -9999.00 -9999.00 -9999.00 -9999.00 -9999.00 -9999.00 -9999.00 -9999.00 -9999.00 -9999.00 -9999.00 -9999.00 -9999.00 -9999.00 -9999.00 -9999.00 -9999.00 -9999.00 -9999.00 -9999.00 -9999.00 -9999.00 -9999.00 -9999.00 -9999.00 -9999.00 -9999.00 -9999.00 -9999.00 -9999.00 -9999.00 -9999.00 -9999.00 -9999.00 -9999.00 -9999.00 -9999.00 -9999.00 -9999.00 -9999.00 -9999.00 -9999.00 -9999.00 -9999.00 -9999.00 -9999.00 -9999.00 -9999.00 -9999.00 -9999.00 -9999.00 -9999.00 -9999.00 -9999.00 -9999.00 -9999.00 -9999.00 -9999.00 -9999.00 -9999.00 -9999.00 -9999.00 -9999.00 -9999.00 -9999.00 -9999.00 -9999.00 -9999.00 -9999.00 -9999.00 2.65 2.80 3.65 3.89 3.09 2.42 1.81 1.50 1.17 0.94 0.68 0.61 0.50 0.42 0.33 0.27 0.33 0.30 0.15 0.06 0.05 -0.02 -0.16 -0.26 -0.46 -0.42 -0.48 -0.48 -0.62 -0.68 -0.74 -0.73 -0.86 -0.94 -1.02 -1.09 -1.17 -1.16 -1.15 -1.24 -1.28 -1.36 -1.53 -1.55 -1.60 -1.69 -1.75 -1.69 -1.61 -1.73 -1.88 -1.87 -1.97 -2.13 -2.19 -2.25 -2.23 -2.31 -2.29 -2.28 -2.35 -2.43 -2.48 -2.52 -2.58 -2.65 -2.69 -2.74 -2.79 -2.88
-8.34 -8.31 -8.23 -8.22 -8.09 -7.97 -7.85 -7.78 -7.57 -7.14 -6.72 -6.05 -5.67 -5.33 -5.03 -4.56 -3.40 -2.32 -1.27 -1.72 -1.36 -1.26 -1.26 -1.32 -1.44 -1.53 -1.60 -1.46 -1.38 -1.49 -1.46 -1.62 -1.65 -1.63 -1.63 -1.61 -1.60 -1.59 -1.56 -1.56 -1.52 -1.49 -1.49 -1.46 -1.43 -1.41 -1.38 -1.32 -1.26 -1.20 -1.16 -1.10 -1.03 -1.02 -0.96 -0.90 -0.77 -0.74 -0.76 -0.76 -0.75 -0.71 -0.73 -0.74 -0.71 -0.72 -0.74 -0.73 -0.74 -0.72 -0.75 -0.73 -0.80 -0.81 -0.83 -0.90 -0.96 -1.07 -1.17 -1.23 -1.28 -1.34 -1.38 -1.43 -1.47 -1.46 -1.47 -1.49 -1.54 -1.55 -1.55 -1.59 -1.61 -1.62 -1.63 -1.62 -1.62 -1.61 -1.61 -1.62 -1.59 -1.57 -1.57 -1.53 -1.50 -1.49 -1.46 -1.57 -1.58 -1.55 -1.46 -1.33 -1.17 -1.03 -0.90 -0.83 -0.81 -0.74 -0.69 -0.61 -0.55 -0.49 -0.42 -0.38 -0.31 -0.14 -0.03 0.02 0.11 0.14 0.02 0.11 0.11 0.14 0.23 0.32 0.35 0.42 0.51 0.56 0.56 0.61 0.58 0.60 0.62 0.59 0.66 0.68 0.86 0.96 1.28 1.39 1.55 1.96 2.21 2.44 2.89 3.20 3.93 3.82 3.74 3.56 3.58 3.55 3.53 3.56 3.55 3.60 3.63 3.59 3.51 3.46 3.50 3.43 3.40 3.30 3.20 3.10 3.05 3.07 3.08 3.24 3.46 3.67 3.89 4.03 -9999.00 -9999.00 -9999.00 -9999.00 -9999.00 -9999.00 -9999.00 -9999.00 -9999.00 -9999.00 -9999.00 -9999.00 -9999.00 -9999.00 -9999.00 -9999.00 -9999.00 -9999.00 -9999.00 -9999.00 -9999.00 -9999.00 -9999.00 -9999.00 -9999.00 -9999.00 -9999.00 -9999.00 -9999.00 -9999.00 -9999.00 -9999.00 -9999.00 -9999.00 -9999.00 -9999.00 -9999.00 -9999.00 -9999.00 -9999.00 -9999.00 -9999.00 -9999.00 -9999.00 -9999.00 -9999.00 -9999.00 -9999.00 -9999.00 -9999.00 -9999.00 -9999.00 -9999.00 -9999.00 -9999.00 -9999.00 -9999.00 -9999.00 -9999.00 -9999.00 -9999.00 -9999.00 -9999.00 -9999.00 -9999.00 -9999.00 -9999.00 -9999.00 -9999.00 -9999.00 -9999.00 -9999.00 -9999.00 -9999.00 -9999.00 -9999.00 -9999.00 -9999.00 -9999.00 -9999.00 -9999.00 -9999.00 -9999.00 -9999.00 -9999.00 -9999.00 -9999.00 -9999.00 -9999.00 -9999.00 -9999.00 -9999.00 -9999.00 -9999.00 -9999.00 -9999.00 -9999.00 -9999.00 -9999.00 -9999.00 -9999.00 -9999.00 -9999.00 -9999.00 -9999.00 -9999.00 -9999.00 -9999.00 -9999.00 -9999.00 -9999.00 -9999.00 -9999.00 -9999.00 -9999.00 -9999.00 -9999.00 -9999.00 -9999.00 -9999.00 2.64 2.71 3.60 3.76 3.23 2.64 2.09 1.63 1.26 1.01 0.75 0.77 0.60 0.51 0.44 0.33 0.34 0.23 0.17 0.08 0.09 0.44 -0.13 -0.40 -0.30 -0.34 -0.37 -0.44 -0.59 -0.67 -0.70 -0.76 -0.81 -0.86 -0.92 -0.99 -1.05 -1.18 -1.20 -1.23 -1.25 -1.30 -1.47 -1.49 -1.54 -1.63 -1.68 -1.62 -1.56 -1.59 -1.67 -1.84 -1.93 -2.05 -2.10 -2.18 -2.11 -2.21 -2.22 -2.22 -2.22 -2.30 -2.33 -2.38 -2.46 -2.55 -2.60 -2.65 -2.76
-8.22 -8.17 -8.12 -8.04 -7.94 -7.86 -7.75 -7.59 -7.29 -6.90 -6.33 -5.78 -5.18 -4.91 -4.63 -4.23 -3.11 -1.98 -2.08 -0.89 -1.14 -1.19 -1.23 -1.27 -1.34 -1.42 -1.49 -1.44 -1.33 -1.24 -1.16 -1.25 -1.45 -1.46 -1.45 -1.47 -1.44 -1.44 -1.43 -1.41 -1.41 -1.39 -1.40 -1.38 -1.34 -1.30 -1.24 -1.19 -1.14 -1.09 -1.03 -0.97 -0.91 -0.85 -0.82 -0.70 -0.63 -0.65 -0.67 -0.69 -0.68 -0.68 -0.67 -0.68 -0.67 -0.66 -0.67 -0.67 -0.70 -0.73 -0.70 -0.71 -0.73 -0.76 -0.79 -0.86 -0.91 -0.95 -1.01 -1.08 -1.15 -1.20 -1.26 -1.28 -1.34 -1.34 -1.34 -1.35 -1.38 -1.41 -1.42 -1.42 -1.47 -1.50 -1.49 -1.48 -1.48 -1.47 -1.48 -1.48 -1.45 -1.43 -1.40 -1.39 -1.38 -1.41 -1.42 -1.42 -1.42 -1.28 -1.17 -1.10 -1.04 -0.94 -0.85 -0.77 -0.72 -0.62 -0.56 -0.49 -0.48 -0.34 -0.28 -0.25 -0.15 -0.05 0.10 0.11 0.10 0.05 0.07 0.12 0.18 0.23 0.26 0.35 0.44 0.47 0.55 0.46 0.54 0.61 0.59 0.64 0.64 0.60 0.80 1.08 1.29 1.52 1.72 1.93 2.16 2.52 2.97 3.47 3.86 3.86 3.75 3.64 3.42 3.54 3.61 3.45 3.29 3.31 3.30 3.36 3.35 3.31 3.23 2.98 3.16 3.20 3.10 2.99 2.97 3.02 3.12 -9999.00 -9999.00 -9999.00 -9999.00 -9999.00 -9999.00 -9999.00 -9999.00 -9999.00 -9999.00 -9999.00 -9999.00 -9999.00 -9999.00 -9999.00 -9999.00 -9999.00 -9999.00 -9999.00 -9999.00 -9999.00 -9999.00 -9999.00 -9999.00 -9999.00 -9999.00 -9999.00 -9999.00 -9999.00 -9999.00 -9999.00 -9999.00 -9999.00 -9999.00 -9999.00 -9999.00 -9999.00 -9999.00 -9999.00 -9999.00 -9999.00 -9999.00 -9999.00 -9999.00 -9999.00 -9999.00 -9999.00 -9999.00 -9999.00 -9999.00 -9999.00 -9999.00 -9999.00 -9999.00 -9999.00 -9999.00 -9999.00 -9999.00 -9999.00 -9999.00 -9999.00 -9999.00 -9999.00 -9999.00 -9999.00 -9999.00 -9999.00 -9999.00 -9999.00 -9999.00 -9999.00 -9999.00 -9999.00 -9999.00 -9999.00 -9999.00 -9999.00 -9999.00 -9999.00 -9999.00 -9999.00 -9999.00 -9999.00 -9999.00 -9999.00 -9999.00 -9999.00 -9999.00 -9999.00 -9999.00 -9999.00 -9999.00 -9999.00 -9999.00 -9999.00 -9999.00 -9999.00 -9999.00 -9999.00 -9999.00 -9999.00 -9999.00 -9999.00 -9999.00 -9999.00 -9999.00 -9999.00 -9999.00 -9999.00 -9999.00 -9999.00 -9999.00 -9999.00 -9999.00 -9999.00 -9999.00 -9999.00 -9999.00 -9999.00 -9999.00 -9999.00 -9999.00 -9999.00 -9999.00 -9999.00 -9999.00 -9999.00 -9999.00 2.63 2.63 3.25 3.81 3.57 2.92 2.31 1.75 1.44 1.12 1.00 0.85 0.74 0.52 0.51 0.43 0.40 0.26 0.20 0.17 0.31 0.14 -0.04 -0.19 -0.24 -0.25 -0.26 -0.41 -0.56 -0.63 -0.67 -0.70 -0.75 -0.83 -0.79 -0.94 -0.98 -1.08 -1.17 -1.22 -1.24 -1.30 -1.44 -1.46 -1.50 -1.48 -1.60 -1.54 -1.47 -1.56 -1.61 -1.77 -1.89 -1.98 -2.06 -2.12 -2.05 -2.10 -2.12 -2.13 -2.13 -2.18 -2.22 -2.30 -2.33 -2.41 -2.51 -2.61
-8.08 -8.02 -7.99 -7.88 -7.79 -7.70 -7.61 -7.33 -7.06 -6.54 -5.91 -5.30 -5.05 -4.76 -4.47 -4.11 -3.71 -2.96 -1.55 -0.98 -0.92 -1.19 -1.15 -1.23 -1.31 -1.33 -1.39 -1.36 -1.36 -1.27 -1.19 -1.11 -1.15 -1.26 -1.33 -1.32 -1.34 -1.29 -1.29 -1.27 -1.29 -1.25 -1.26 -1.24 -1.23 -1.20 -1.13 -1.09 -1.03 -0.98 -0.92 -0.86 -0.81 -0.76 -0.67 -0.61 -0.62 -0.64 -0.64 -0.64 -0.63 -0.60 -0.65 -0.65 -0.64 -0.63 -0.65 -0.67 -0.69 -0.70 -0.71 -0.72 -0.73 -0.75 -0.79 -0.83 -0.88 -0.92 -0.97 -1.02 -1.06 -1.11 -1.15 -1.17 -1.21 -1.25 -1.22 -1.22 -1.22 -1.27 -1.30 -1.32 -1.32 -1.36 -1.36 -1.36 -1.36 -1.36 -1.37 -1.35 -1.32 -1.29 -1.26 -1.23 -1.22 -1.22 -1.22 -1.23 -1.12 -1.00 -1.05 -0.99 -0.92 -0.84 -0.76 -0.69 -0.56 -0.51 -0.46 -0.36 -0.26 -0.22 -0.16 -0.12 -0.02 0.09 0.17 0.23 0.10 0.04 0.11 0.22 0.30 0.32 0.35 0.37 0.43 0.46 0.48 0.44 0.49 0.47 0.51 0.50 0.71 1.03 1.34 1.53 1.73 2.05 2.23 2.61 3.11 4.01 3.93 3.69 3.55 3.44 3.45 3.61 3.16 3.25 3.44 3.25 3.03 3.05 3.06 3.10 3.00 2.88 2.69 2.89 2.86 2.89 -9999.00 -9999.00 -9999.00 -9999.00 -9999.00 -9999.00 -9999.00 -9999.00 -9999.00 -9999.00 -9999.00 -9999.00 -9999.00 -9999.00 -9999.00 -9999.00 -9999.00 -9999.00 -9999.00 -9999.00 -9999.00 -9999.00 -9999.00 -9999.00 -9999.00 -9999.00 -9999.00 -9999.00 -9999.00 -9999.00 -9999.00 -9999.00 -9999.00 -9999.00 -9999.00 -9999.00 -9999.00 -9999.00 -9999.00 -9999.00 -9999.00 -9999.00 -9999.00 -9999.00 -9999.00 -9999.00 -9999.00 -9999.00 -9999.00 -9999.00 -9999.00 -9999.00 -9999.00 -9999.00 -9999.00 -9999.00 -9999.00 -9999.00 -9999.00 -9999.00 -9999.00 -9999.00 -9999.00 -9999.00 -9999.00 -9999.00 -9999.00 -9999.00 -9999.00 -9999.00 -9999.00 -9999.00 -9999.00 -9999.00 -9999.00 -9999.00 -9999.00 -9999.00 -9999.00 -9999.00 -9999.00 -9999.00 -9999.00 -9999.00 -9999.00 -9999.00 -9999.00 -9999.00 -9999.00 -9999.00 -9999.00 -9999.00 -9999.00 -9999.00 -9999.00 -9999.00 -9999.00 -9999.00 -9999.00 -9999.00 -9999.00 -9999.00 -9999.00 -9999.00 -9999.00 -9999.00 -9999.00 -9999.00 -9999.00 -9999.00 -9999.00 -9999.00 -9999.00 -9999.00 -9999.00 -9999.00 -9999.00 -9999.00 -9999.00 -9999.00 -9999.00 -9999.00 -9999.00 -9999.00 -9999.00 -9999.00 -9999.00 -9999.00 -9999.00 -9999.00 -9999.00 -9999.00 -9999.00 -9999.00 -9999.00 2.62 3.08 3.71 3.67 3.16 2.52 1.96 1.57 1.29 1.10 0.94 0.65 0.63 0.74 0.53 0.41 0.32 0.19 0.07 0.13 -0.04 -0.08 -0.08 -0.14 -0.10 -0.24 -0.47 -0.54 -0.67 -0.71 -0.69 -0.69 -0.73 -0.74 -0.85 -0.91 -0.98 -1.07 -1.19 -1.25 -1.30 -1.40 -1.43 -1.44 -1.44 -1.56 -1.53 -1.53 -1.54 -1.62 -1.71 -1.86 -1.91 -1.97 -2.02 -1.95 -1.97 -2.06 -2.03 -2.04 -2.12 -2.16 -2.24 -2.32 -2.34 -2.41
-7.86 -7.80 -7.75 -7.65 -7.54 -7.49 -7.27 -6.90 -6.60 -6.06 -5.51 -5.09 -4.85 -4.61 -4.31 -3.98 -3.66 -3.27 -2.35 -1.15 -1.00 -1.06 -1.14 -1.24 -1.28 -1.31 -1.32 -1.31 -1.35 -1.27 -1.23 -1.10 -1.05 -1.05 -1.17 -1.22 -1.19 -1.18 -1.16 -1.16 -1.14 -1.17 -1.12 -1.12 -1.11 -1.08 -1.02 -0.96 -0.92 -0.88 -0.80 -0.75 -0.70 -0.63 -0.57 -0.68 -0.66 -0.65 -0.63 -0.60 -0.60 -0.59 -0.64 -0.64 -0.62 -0.62 -0.65 -0.67 -0.69 -0.69 -0.70 -0.72 -0.72 -0.75 -0.80 -0.80 -0.84 -0.87 -0.91 -0.94 -0.97 -1.00 -1.04 -1.01 -1.09 -1.18 -1.10 -1.07 -1.08 -1.12 -1.15 -1.19 -1.20 -1.23 -1.23 -1.23 -1.24 -1.24 -1.23 -1.21 -1.18 -1.15 -1.12 -1.09 -1.07 -1.05 -1.03 -1.00 -0.99 -0.87 -0.92 -0.86 -0.80 -0.73 -0.65 -0.56 -0.50 -0.39 -0.33 -0.26 -0.18 -0.10 -0.09 0.03 0.10 0.21 0.17 0.19 0.08 0.13 0.18 0.25 0.34 0.37 0.40 0.43 0.45 0.46 0.45 0.42 0.34 0.45 0.70 0.98 1.27 1.48 1.81 2.06 2.48 2.67 3.12 4.29 3.89 3.47 3.46 3.38 3.27 3.31 3.37 3.55 2.89 2.83 2.85 2.89 2.84 2.77 2.80 2.72 2.70 2.72 2.81 -9999.00 -9999.00 -9999.00 -9999.00 -9999.00 -9999.00 -9999.00 -9999.00 -9999.00 -9999.00 -9999.00 -9999.00 -9999.00 -9999.00 -9999.00 -9999.00 -9999.00 -9999.00 -9999.00 -9999.00 -9999.00 -9999.00 -9999.00 -9999.00 -9999.00 -9999.00 -9999.00 -9999.00 -9999.00 -9999.00 -9999.00 -9999.00 -9999.00 -9999.00 -9999.00 -9999.00 -9999.00 -9999.00 -9999.00 -9999.00 -9999.00 -9999.00 -9999.00 -9999.00 -9999.00 -9999.00 -9999.00 -9999.00 -9999.00 -9999.00 -9999.00 -9999.00 -9999.00 -9999.00 -9999.00 -9999.00 -9999.00 -9999.00 -9999.00 -9999.00 -9999.00 -9999.00 -9999.00 -9999.00 -9999.00 -9999.00 -9999.00 -9999.00 -9999.00 -9999.00 -9999.00 -9999.00 -9999.00 -9999.00 -9999.00 -9999.00 -9999.00 -9999.00 -9999.00 -9999.00 -9999.00 -9999.00 -9999.00 -9999.00 -9999.00 -9999.00 -9999.00 -9999.00 -9999.00 -9999.00 -9999.00 -9999.00 -9999.00 -9999.00 -9999.00 -9999.00 -9999.00 -9999.00 -9999.00 -9999.00 -9999.00 -9999.00 -9999.00 -9999.00 -9999.00 -9999.00 -9999.00 -9999.00 -9999.00 -9999.00 -9999.00 -9999.00 -9999.00 -9999.00 -9999.00 -9999.00 -9999.00 -9999.00 -9999.00 -9999.00 -9999.00 -9999.00 -9999.00 -9999.00 -9999.00 -9999.00 -9999.00 -9999.00 -9999.00 -9999.00 -9999.00 -9999.00 -9999.00 -9999.00 -9999.00 -9999.00 -9999.00 -9999.00 -9999.00 2.61 2.90 3.50 3.67 3.60 2.80 2.26 1.83 1.46 1.19 0.81 0.97 0.93 0.78 0.65 0.42 0.34 0.29 0.19 0.02 0.05 0.07 -0.08 -0.06 -0.16 -0.32 -0.39 -0.57 -0.64 -0.75 -0.66 -0.69 -0.71 -0.73 -0.79 -0.83 -0.92 -1.03 -1.17 -1.22 -1.31 -1.37 -1.40 -1.35 -1.40 -1.44 -1.47 -1.53 -1.53 -1.60 -1.55 -1.76 -1.82 -1.88 -1.91 -1.90 -1.88 -1.98 -1.97 -2.01 -2.05 -2.11 -2.18 -2.24 -2.30
-7.55 -7.46 -7.28 -7.15 -7.12 -7.00 -6.60 -6.30 -5.93 -5.55 -5.03 -4.83 -4.61 -4.45 -4.23 -3.95 -3.62 -3.24 -2.28 -1.17 -1.02 -1.02 -1.08 -1.19 -1.25 -1.28 -1.31 -1.29 -1.27 -1.25 -1.26 -1.21 -1.07 -0.98 -0.99 -1.02 -1.06 -1.04 -1.02 -1.01 -0.98 -0.99 -0.99 -0.99 -0.97 -0.95 -0.92 -0.86 -0.83 -0.77 -0.69 -0.64 -0.60 -0.53 -0.55 -0.61 -0.67 -0.70 -0.63 -0.58 -0.57 -0.58 -0.62 -0.59 -0.61 -0.63 -0.64 -0.67 -0.67 -0.67 -0.70 -0.70 -0.72 -0.73 -0.74 -0.76 -0.78 -0.82 -0.84 -0.87 -0.89 -0.92 -1.00 -0.93 -0.98 -1.03 -0.95 -0.93 -0.94 -0.98 -1.01 -1.04 -1.07 -1.11 -1.10 -1.09 -1.10 -1.11 -1.09 -1.07 -1.04 -1.01 -0.98 -0.96 -0.94 -0.92 -0.89 -0.86 -0.83 -0.79 -0.79 -0.73 -0.67 -0.61 -0.54 -0.44 -0.35 -0.26 -0.21 -0.14 -0.08 0.01 0.06 0.17 0.22 0.19 0.12 0.17 0.15 0.16 0.22 0.28 0.34 0.34 0.40 0.47 0.44 0.50 0.41 0.40 0.63 0.85 1.20 1.48 1.78 2.00 2.35 2.85 3.27 4.02 3.83 3.60 3.45 3.53 3.19 3.17 3.02 2.98 3.02 2.74 2.71 2.89 2.96 2.97 -9999.00 -9999.00 -9999.00 -9999.00 -9999.00 -9999.00 -9999.00 -9999.00 -9999.00 -9999.00 -9999.00 -9999.00 -9999.00 -9999.00 -9999.00 -9999.00 -9999.00 -9999.00 -9999.00 -9999.00 -9999.00 -9999.00 -9999.00 -9999.00 -9999.00 -9999.00 -9999.00 -9999.00 -9999.00 -9999.00 -9999.00 -9999.00 -9999.00 -9999.00 -9999.00 -9999.00 -9999.00 -9999.00 -9999.00 -9999.00 -9999.00 -9999.00 -9999.00 -9999.00 -9999.00 -9999.00 -9999.00 -9999.00 -9999.00 -9999.00 -9999.00 -9999.00 -9999.00 -9999.00 -9999.00 -9999.00 -9999.00 -9999.00 -9999.00 -9999.00 -9999.00 -9999.00 -9999.00 -9999.00 -9999.00 -9999.00 -9999.00 -9999.00 -9999.00 -9999.00 -9999.00 -9999.00 -9999.00 -9999.00 -9999.00 -9999.00 -9999.00 -9999.00 -9999.00 -9999.00 -9999.00 -9999.00 -9999.00 -9999.00 -9999.00 -9999.00 -9999.00 -9999.00 -9999.00 -9999.00 -9999.00 -9999.00 -9999.00 -9999.00 -9999.00 -9999.00 -9999.00 -9999.00 -9999.00 -9999.00 -9999.00 -9999.00 -9999.00 -9999.00 -9999.00 -9999.00 -9999.00 -9999.00 -9999.00 -9999.00 -9999.00 -9999.00 -9999.00 -9999.00 -9999.00 -9999.00 -9999.00 -9999.00 -9999.00 -9999.00 -9999.00 -9999.00 -9999.00 -9999.00 -9999.00 -9999.00 -9999.00 -9999.00 -9999.00 -9999.00 -9999.00 -9999.00 -9999.00 -9999.00 -9999.00 -9999.00 -9999.00 -9999.00 -9999.00 -9999.00 -9999.00 -9999.00 -9999.00 -9999.00 -9999.00 -9999.00 -9999.00 2.60 2.73 3.33 3.74 3.66 3.25 2.48 2.03 1.66 1.43 1.30 1.19 1.07 0.87 0.60 0.36 0.45 0.25 0.17 0.13 0.13 0.04 0.08 -0.08 -0.16 -0.24 -0.32 -0.44 -0.51 -0.56 -0.61 -0.66 -0.68 -0.72 -0.72 -0.80 -0.89 -1.00 -1.14 -1.22 -1.25 -1.29 -1.28 -1.24 -1.24 -1.27 -1.34 -1.40 -1.39 -1.48 -1.53 -1.55 -1.72 -1.78 -1.80 -1.82 -1.84 -1.88 -1.92 -2.00 -1.99 -2.04 -2.07 -2.17
-7.10 -6.91 -6.63 -6.55 -6.46 -5.94 -5.74 -5.56 -5.27 -4.88 -4.68 -4.53 -4.39 -4.23 -3.95 -3.73 -3.49 -3.18 -2.36 -1.65 -0.98 -1.03 -1.05 -1.13 -1.21 -1.27 -1.28 -1.31 -1.27 -1.24 -1.26 -1.27 -1.22 -1.08 -0.97 -0.91 -0.89 -0.88 -0.87 -0.86 -0.85 -0.84 -0.85 -0.86 -0.84 -0.83 -0.79 -0.75 -0.71 -0.65 -0.59 -0.54 -0.52 -0.51 -0.63 -0.67 -0.67 -0.66 -0.57 -0.52 -0.49 -0.50 -0.53 -0.57 -0.61 -0.61 -0.63 -0.63 -0.63 -0.64 -0.65 -0.65 -0.67 -0.68 -0.68 -0.70 -0.73 -0.77 -0.79 -0.80 -0.83 -0.84 -0.85 -0.85 -0.87 -0.89 -0.79 -0.80 -0.81 -0.84 -0.88 -0.89 -0.92 -0.96 -0.95 -0.96 -0.97 -0.96 -0.94 -0.93 -0.90 -0.88 -0.85 -0.83 -0.80 -0.78 -0.74 -0.74 -0.71 -0.69 -0.65 -0.59 -0.55 -0.49 -0.42 -0.30 -0.21 -0.08 -0.17 -0.02 0.05 0.15 0.20 0.23 0.23 0.23 0.16 0.14 0.19 0.19 0.20 0.31 0.36 0.38 0.39 0.40 0.37 0.45 0.44 0.71 1.06 1.39 1.64 1.95 2.34 2.64 2.99 3.68 3.88 3.54 3.54 3.29 3.18 3.28 3.10 2.86 2.75 2.70 2.82 2.91 -9999.00 -9999.00 -9999.00 -9999.00 -9999.00 -9999.00 -9999.00 -9999.00 -9999.00 -9999.00 -9999.00 -9999.00 -9999.00 -9999.00 -9999.00 -9999.00 -9999.00 -9999.00 -9999.00 -9999.00 -9999.00 -9999.00 -9999.00 -9999.00 -9999.00 -9999.00 -9999.00 -9999.00 -9999.00 -9999.00 -9999.00 -9999.00 -9999.00 -9999.00 -9999.00 -9999.00 -9999.00 -9999.00 -9999.00 -9999.00 -9999.00 -9999.00 -9999.00 -9999.00 -9999.00 -9999.00 -9999.00 -9999.00 -9999.00 -9999.00 -9999.00 -9999.00 -9999.00 -9999.00 -9999.00 -9999.00 -9999.00 -9999.00 -9999.00 -9999.00 -9999.00 -9999.00 -9999.00 -9999.00 -9999.00 -9999.00 -9999.00 -9999.00 -9999.00 -9999.00 -9999.00 -9999.00 -9999.00 -9999.00 -9999.00 -9999.00 -9999.00 -9999.00 -9999.00 -9999.00 -9999.00 -9999.00 -9999.00 -9999.00 -9999.00 -9999.00 -9999.00 -9999.00 -9999.00 -9999.00 -9999.00 -9999.00 -9999.00 -9999.00 -9999.00 -9999.00 -9999.00 -9999.00 -9999.00 -9999.00 -9999.00 -9999.00 -9999.00 -9999.00 -9999.00 -9999.00 -9999.00 -9999.00 -9999.00 -9999.00 -9999.00 -9999.00 -9999.00 -9999.00 -9999.00 -9999.00 -9999.00 -9999.00 -9999.00 -9999.00 -9999.00 -9999.00 -9999.00 -9999.00 -9999.00 -9999.00 -9999.00 -9999.00 -9999.00 -9999.00 -9999.00 -9999.00 -9999.00 -9999.00 -9999.00 -9999.00 -9999.00 -9999.00 -9999.00 -9999.00 -9999.00 -9999.00 -9999.00 -9999.00 -9999.00 -9999.00 -9999.00 -9999.00 -9999.00 -9999.00 -9999.00 -9999.00 2.60 2.59 3.25 3.56 3.75 3.59 3.01 2.44 1.98 1.65 1.45 1.29 1.12 0.78 0.42 0.37 0.35 0.26 0.17 0.16 0.08 0.06 0.05 0.01 -0.07 -0.16 -0.25 -0.45 -0.45 -0.47 -0.51 -0.52 -0.58 -0.59 -0.68 -0.77 -0.85 -0.94 -1.10 -1.18 -1.17 -1.13 -1.12 -1.09 -1.10 -1.10 -1.13 -1.17 -1.27 -1.37 -1.46 -1.42 -1.56 -1.71 -1.68 -1.74 -1.80 -1.77 -1.83 -1.98 -1.92 -1.99 -2.01
-6.64 -6.33 -5.98 -5.77 -5.66 -5.22 -5.06 -4.98 -4.89 -4.64 -4.39 -4.27 -4.17 -4.05 -3.86 -3.62 -3.36 -3.09 -2.80 -2.30 -1.55 -0.93 -1.02 -1.11 -1.25 -1.25 -1.31 -1.29 -1.32 -1.29 -1.21 -1.21 -1.27 -1.29 -1.08 -0.95 -0.84 -0.75 -0.75 -0.73 -0.72 -0.71 -0.71 -0.73 -0.71 -0.74 -0.71 -0.69 -0.59 -0.61 -0.52 -0.55 -0.53 -0.62 -0.68 -0.69 -0.66 -0.56 -0.50 -0.44 -0.43 -0.43 -0.43 -0.52 -0.57 -0.56 -0.57 -0.57 -0.56 -0.57 -0.58 -0.60 -0.60 -0.63 -0.64 -0.64 -0.63 -0.65 -0.66 -0.68 -0.71 -0.71 -0.67 -0.72 -0.63 -0.72 -0.68 -0.66 -0.66 -0.70 -0.73 -0.74 -0.79 -0.86 -0.82 -0.84 -0.82 -0.82 -0.80 -0.77 -0.76 -0.74 -0.72 -0.69 -0.66 -0.64 -0.61 -0.59 -0.56 -0.56 -0.51 -0.50 -0.42 -0.36 -0.31 -0.21 -0.09 0.00 -0.08 0.03 0.20 0.22 0.36 0.27 0.24 0.22 0.22 0.25 0.26 0.22 0.27 0.31 0.38 0.34 0.37 0.40 0.45 0.62 0.90 1.22 1.50 1.73 2.13 2.49 2.89 3.54 3.99 3.65 3.49 3.16 3.11 3.09 2.86 2.84 2.72 2.82 -9999.00 -9999.00 -9999.00 -9999.00 -9999.00 -9999.00 -9999.00 -9999.00 -9999.00 -9999.00 -9999.00 -9999.00 -9999.00 -9999.00 -9999.00 -9999.00 -9999.00 -9999.00 -9999.00 -9999.00 -9999.00 -9999.00 -9999.00 -9999.00 -9999.00 -9999.00 -9999.00 -9999.00 -9999.00 -9999.00 -9999.00 -9999.00 -9999.00 -9999.00 -9999.00 -9999.00 -9999.00 -9999.00 -9999.00 -9999.00 -9999.00 -9999.00 -9999.00 -9999.00 -9999.00 -9999.00 -9999.00 -9999.00 -9999.00 -9999.00 -9999.00 -9999.00 -9999.00 -9999.00 -9999.00 -9999.00 -9999.00 -9999.00 -9999.00 -9999.00 -9999.00 -9999.00 -9999.00 -9999.00 -9999.00 -9999.00 -9999.00 -9999.00 -9999.00 -9999.00 -9999.00 -9999.00 -9999.00 -9999.00 -9999.00 -9999.00 -9999.00 -9999.00 -9999.00 -9999.00 -9999.00 -9999.00 -9999.00 -9999.00 -9999.00 -9999.00 -9999.00 -9999.00 -9999.00 -9999.00 -9999.00 -9999.00 -9999.00 -9999.00 -9999.00 -9999.00 -9999.00 -9999.00 -9999.00 -9999.00 -9999.00 -9999.00 -9999.00 -9999.00 -9999.00 -9999.00 -9999.00 -9999.00 -9999.00 -9999.00 -9999.00 -9999.00 -9999.00 -9999.00 -9999.00 -9999.00 -9999.00 -9999.00 -9999.00 -9999.00 -9999.00 -9999.00 -9999.00 -9999.00 -9999.00 -9999.00 -9999.00 -9999.00 -9999.00 -9999.00 -9999.00 -9999.00 -9999.00 -9999.00 -9999.00 -9999.00 -9999.00 -9999.00 -9999.00 -9999.00 -9999.00 -9999.00 -9999.00 -9999.00 -9999.00 -9999.00 -9999.00 -9999.00 -9999.00 -9999.00 -9999.00 -9999.00 -9999.00 -9999.00 -9999.00 -9999.00 -9999.00 -9999.00 2.58 2.86 3.29 3.66 3.88 3.63 2.80 2.30 1.98 1.57 1.34 1.07 0.75 0.66 0.48 0.31 0.26 0.22 0.17 0.15 0.13 0.21 0.03 -0.08 0.33 -0.16 -0.23 -0.27 -0.37 -0.38 -0.45 -0.46 -0.55 -0.64 -0.73 -0.82 -0.87 -0.93 -0.98 -1.02 -0.98 -0.96 -0.94 -0.96 -1.04 -1.04 -1.05 -1.06 -1.17 -1.30 -1.42 -1.45 -1.52 -1.59 -1.58 -1.71 -1.71 -1.75 -1.83 -1.86 -1.95
-6.13 -5.80 -5.48 -5.30 -5.21 -4.99 -4.80 -4.73 -4.61 -4.52 -4.26 -4.18 -4.02 -3.87 -3.63 -3.41 -3.18 -2.95 -2.69 -2.41 -2.08 -1.41 -1.00 -1.02 -1.07 -1.23 -1.29 -1.35 -1.32 -1.35 -1.32 -1.21 -1.14 -1.20 -1.15 -1.03 -1.02 -0.78 -0.72 -0.72 -0.62 -0.57 -0.58 -0.58 -0.64 -0.65 -0.66 -0.57 -0.54 -0.45 -0.41 -0.45 -0.47 -0.57 -0.70 -0.71 -0.69 -0.59 -0.44 -0.41 -0.42 -0.35 -0.29 -0.43 -0.49 -0.48 -0.49 -0.50 -0.49 -0.48 -0.52 -0.53 -0.54 -0.55 -0.53 -0.54 -0.55 -0.54 -0.53 -0.55 -0.58 -0.54 -0.55 -0.51 -0.53 -0.52 -0.54 -0.52 -0.49 -0.57 -0.60 -0.60 -0.70 -0.80 -0.84 -0.72 -0.71 -0.71 -0.67 -0.63 -0.60 -0.59 -0.58 -0.55 -0.52 -0.50 -0.49 -0.52 -0.46 -0.43 -0.36 -0.29 -0.32 -0.22 -0.14 -0.06 0.04 0.13 0.21 0.18 0.26 0.28 0.29 0.30 0.29 0.27 0.31 0.30 0.31 0.30 0.28 0.35 0.42 0.36 0.47 0.62 0.87 1.06 1.37 1.67 2.01 2.22 2.73 3.15 3.64 3.84 3.57 3.44 3.30 3.08 2.73 2.63 2.53 2.78 -9999.00 -9999.00 -9999.00 -9999.00 -9999.00 -9999.00 -9999.00 -9999.00 -9999.00 -9999.00 -9999.00 -9999.00 -9999.00 -9999.00 -9999.00 -9999.00 -9999.00 -9999.00 -9999.00 -9999.00 -9999.00 -9999.00 -9999.00 -9999.00 -9999.00 -9999.00 -9999.00 -9999.00 -9999.00 -9999.00 -9999.00 -9999.00 -9999.00 -9999.00 -9999.00 -9999.00 -9999.00 -9999.00 -9999.00 -9999.00 -9999.00 -9999.00 -9999.00 -9999.00 -9999.00 -9999.00 -9999.00 -9999.00 -9999.00 -9999.00 -9999.00 -9999.00 -9999.00 -9999.00 -9999.00 -9999.00 -9999.00 -9999.00 -9999.00 -9999.00 -9999.00 -9999.00 -9999.00 -9999.00 -9999.00 -9999.00 -9999.00 -9999.00 -9999.00 -9999.00 -9999.00 -9999.00 -9999.00 -9999.00 -9999.00 -9999.00 -9999.00 -9999.00 -9999.00 -9999.00 -9999.00 -9999.00 -9999.00 -9999.00 -9999.00 -9999.00 -9999.00 -9999.00 -9999.00 -9999.00 -9999.00 -9999.00 -9999.00 -9999.00 -9999.00 -9999.00 -9999.00 -9999.00 -9999.00 -9999.00 -9999.00 -9999.00 -9999.00 -9999.00 -9999.00 -9999.00 -9999.00 -9999.00 -9999.00 -9999.00 -9999.00 -9999.00 -9999.00 -9999.00 -9999.00 -9999.00 -9999.00 -9999.00 -9999.00 -9999.00 -9999.00 -9999.00 -9999.00 -9999.00 -9999.00 -9999.00 -9999.00 -9999.00 -9999.00 -9999.00 -9999.00 -9999.00 -9999.00 -9999.00 -9999.00 -9999.00 -9999.00 -9999.00 -9999.00 -9999.00 -9999.00 -9999.00 -9999.00 -9999.00 -9999.00 -9999.00 -9999.00 -9999.00 -9999.00 -9999.00 -9999.00 -9999.00 -9999.00 -9999.00 -9999.00 -9999.00 -9999.00 -9999.00 -9999.00 -9999.00 -9999.00 2.57 2.65 2.80 3.27 3.61 3.66 3.53 2.65 2.25 1.77 1.49 1.19 1.00 0.83 0.66 0.48 0.25 0.24 0.20 0.17 0.13 0.12 0.26 0.14 0.04 -0.14 -0.17 -0.25 -0.32 -0.30 -0.34 -0.42 -0.51 -0.59 -0.64 -0.70 -0.79 -0.80 -0.82 -0.86 -0.90 -0.82 -0.78 -0.95 -0.99 -1.00 -1.04 -1.03 -1.03 -1.12 -1.15 -1.35 -1.47 -1.52 -1.53 -1.60 -1.66 -1.70 -1.72 -1.82
-5.70 -5.36 -5.18 -5.05 -4.91 -4.78 -4.61 -4.51 -4.38 -4.29 -4.13 -4.02 -3.86 -3.71 -3.46 -3.22 -2.98 -2.74 -2.50 -2.26 -2.03 -1.72 -1.18 -1.09 -1.02 -1.06 -1.22 -1.33 -1.39 -1.44 -1.42 -1.40 -1.25 -1.05 -1.03 -0.98 -1.03 -0.81 -0.75 -0.70 -0.60 -0.57 -0.49 -0.44 -0.49 -0.44 -0.43 -0.52 -0.50 -0.37 -0.31 -0.31 -0.42 -0.55 -0.66 -0.72 -0.63 -0.56 -0.44 -0.42 -0.28 -0.17 -0.20 -0.40 -0.43 -0.41 -0.42 -0.43 -0.42 -0.41 -0.41 -0.43 -0.44 -0.45 -0.45 -0.46 -0.45 -0.44 -0.42 -0.42 -0.45 -0.42 -0.43 -0.39 -0.37 -0.34 -0.28 -0.32 -0.36 -0.40 -0.48 -0.46 -0.49 -0.60 -0.56 -0.49 -0.62 -0.60 -0.55 -0.49 -0.47 -0.45 -0.43 -0.40 -0.39 -0.34 -0.37 -0.38 -0.32 -0.34 -0.27 -0.14 -0.15 -0.11 -0.01 0.05 0.20 0.26 0.28 0.25 0.32 0.39 0.38 0.37 0.30 0.33 0.34 0.35 0.36 0.36 0.32 0.40 0.42 0.42 0.65 0.95 1.22 1.52 1.90 2.20 2.55 3.08 3.35 3.77 3.71 3.58 3.32 3.24 3.09 2.99 2.68 2.45 -9999.00 -9999.00 -9999.00 -9999.00 -9999.00 -9999.00 -9999.00 -9999.00 -9999.00 -9999.00 -9999.00 -9999.00 -9999.00 -9999.00 -9999.00 -9999.00 -9999.00 -9999.00 -9999.00 -9999.00 -9999.00 -9999.00 -9999.00 -9999.00 -9999.00 -9999.00 -9999.00 -9999.00 -9999.00 -9999.00 -9999.00 -9999.00 -9999.00 -9999.00 -9999.00 -9999.00 -9999.00 -9999.00 -9999.00 -9999.00 -9999.00 -9999.00 -9999.00 -9999.00 -9999.00 -9999.00 -9999.00 -9999.00 -9999.00 -9999.00 -9999.00 -9999.00 -9999.00 -9999.00 -9999.00 -9999.00 -9999.00 -9999.00 -9999.00 -9999.00 -9999.00 -9999.00 -9999.00 -9999.00 -9999.00 -9999.00 -9999.00 -9999.00 -9999.00 -9999.00 -9999.00 -9999.00 -9999.00 -9999.00 -9999.00 -9999.00 -9999.00 -9999.00 -9999.00 -9999.00 -9999.00 -9999.00 -9999.00 -9999.00 -9999.00 -9999.00 -9999.00 -9999.00 -9999.00 -9999.00 -9999.00 -9999.00 -9999.00 -9999.00 -9999.00 -9999.00 -9999.00 -9999.00 -9999.00 -9999.00 -9999.00 -9999.00 -9999.00 -9999.00 -9999.00 -9999.00 -9999.00 -9999.00 -9999.00 -9999.00 -9999.00 -9999.00 -9999.00 -9999.00 -9999.00 -9999.00 -9999.00 -9999.00 -9999.00 -9999.00 -9999.00 -9999.00 -9999.00 -9999.00 -9999.00 -9999.00 -9999.00 -9999.00 -9999.00 -9999.00 -9999.00 -9999.00 -9999.00 -9999.00 -9999.00 -9999.00 -9999.00 -9999.00 -9999.00 -9999.00 -9999.00 -9999.00 -9999.00 -9999.00 -9999.00 -9999.00 -9999.00 -9999.00 -9999.00 -9999.00 -9999.00 -9999.00 -9999.00 -9999.00 -9999.00 -9999.00 -9999.00 -9999.00 -9999.00 -9999.00 -9999.00 -9999.00 -9999.00 -9999.00 2.56 2.63 2.87 3.26 3.51 3.61 3.68 3.22 2.50 2.12 1.69 1.42 1.16 0.93 0.71 0.47 0.29 0.23 0.20 0.16 0.20 0.09 0.20 0.09 -0.02 -0.06 -0.18 -0.23 -0.22 -0.23 -0.30 -0.36 -0.45 -0.51 -0.60 -0.62 -0.65 -0.69 -0.69 -0.71 -0.74 -0.75 -0.76 -0.83 -0.91 -0.92 -0.97 -1.03 -1.03 -1.11 -1.15 -1.25 -1.35 -1.45 -1.48 -1.51 -1.56 -1.63 -1.69
-5.25 -5.13 -4.95 -4.86 -4.70 -4.54 -4.39 -4.24 -4.10 -4.12 -3.92 -3.77 -3.64 -3.53 -3.27 -3.01 -2.75 -2.53 -2.35 -2.19 -1.94 -1.74 -1.58 -1.24 -1.13 -1.04 -1.07 -1.18 -1.34 -1.42 -1.49 -1.52 -1.47 -1.30 -1.13 -0.99 -0.91 -0.85 -0.76 -0.66 -0.58 -0.42 -0.56 -0.50 -0.36 -0.33 -0.35 -0.48 -0.33 -0.26 -0.33 -0.42 -0.44 -0.57 -0.63 -0.77 -0.57 -0.50 -0.40 -0.39 -0.22 -0.12 -0.07 -0.23 -0.35 -0.34 -0.41 -0.35 -0.35 -0.39 -0.33 -0.33 -0.34 -0.34 -0.35 -0.35 -0.34 -0.36 -0.34 -0.31 -0.33 -0.26 -0.37 -0.33 -0.22 -0.29 -0.22 -0.24 -0.29 -0.26 -0.36 -0.33 -0.30 -0.39 -0.43 -0.30 -0.52 -0.47 -0.41 -0.37 -0.41 -0.33 -0.29 -0.29 -0.23 -0.25 -0.28 -0.33 -0.11 -0.15 -0.14 -0.02 0.08 0.01 0.11 0.21 0.32 0.35 0.35 0.35 0.44 0.45 0.48 0.43 0.35 0.43 0.36 0.41 0.42 0.44 0.50 0.36 0.60 0.86 1.13 1.44 1.68 1.94 2.42 2.74 3.24 3.81 3.99 3.85 3.54 3.32 3.15 3.00 2.95 -9999.00 -9999.00 -9999.00 -9999.00 -9999.00 -9999.00 -9999.00 -9999.00 -9999.00 -9999.00 -9999.00 -9999.00 -9999.00 -9999.00 -9999.00 -9999.00 -9999.00 -9999.00 -9999.00 -9999.00 -9999.00 -9999.00 -9999.00 -9999.00 -9999.00 -9999.00 -9999.00 -9999.00 -9999.00 -9999.00 -9999.00 -9999.00 -9999.00 -9999.00 -9999.00 -9999.00 -9999.00 -9999.00 -9999.00 -9999.00 -9999.00 -9999.00 -9999.00 -9999.00 -9999.00 -9999.00 -9999.00 -9999.00 -9999.00 -9999.00 -9999.00 -9999.00 -9999.00 -9999.00 -9999.00 -9999.00 -9999.00 -9999.00 -9999.00 -9999.00 -9999.00 -9999.00 -9999.00 -9999.00 -9999.00 -9999.00 -9999.00 -9999.00 -9999.00 -9999.00 -9999.00 -9999.00 -9999.00 -9999.00 -9999.00 -9999.00 -9999.00 -9999.00 -9999.00 -9999.00 -9999.00 -9999.00 -9999.00 -9999.00 -9999.00 -9999.00 -9999.00 -9999.00 -9999.00 -9999.00 -9999.00 -9999.00 -9999.00 -9999.00 -9999.00 -9999.00 -9999.00 -9999.00 -9999.00 -9999.00 -9999.00 -9999.00 -9999.00 -9999.00 -9999.00 -9999.00 -9999.00 -9999.00 -9999.00 -9999.00 -9999.00 -9999.00 -9999.00 -9999.00 -9999.00 -9999.00 -9999.00 -9999.00 -9999.00 -9999.00 -9999.00 -9999.00 -9999.00 -9999.00 -9999.00 -9999.00 -9999.00 -9999.00 -9999.00 -9999.00 -9999.00 -9999.00 -9999.00 -9999.00 -9999.00 -9999.00 -9999.00 -9999.00 -9999.00 -9999.00 -9999.00 -9999.00 -9999.00 -9999.00 -9999.00 -9999.00 -9999.00 -9999.00 -9999.00 -9999.00 -9999.00 -9999.00 -9999.00 -9999.00 -9999.00 -9999.00 -9999.00 -9999.00 -9999.00 -9999.00 -9999.00 -9999.00 -9999.00 -9999.00 -9999.00 -9999.00 -9999.00 -9999.00 2.56 2.60 2.69 2.97 3.31 3.82 3.78 3.71 3.11 2.41 2.09 1.71 1.36 1.06 0.95 0.74 0.52 0.35 0.23 0.16 0.17 0.15 0.18 0.10 0.08 0.11 0.12 -0.12 -0.22 -0.23 -0.29 -0.38 -0.46 -0.45 -0.50 -0.51 -0.55 -0.58 -0.59 -0.57 -0.62 -0.67 -0.69 -0.71 -0.80 -0.85 -0.84 -0.99 -0.97 -1.00 -1.10 -1.16 -1.23 -1.33 -1.35 -1.38 -1.46 -1.54
-4.96 -4.88 -4.78 -4.54 -4.42 -4.30 -4.21 -3.98 -3.94 -3.88 -3.76 -3.64 -3.53 -3.37 -3.11 -2.82 -2.59 -2.40 -2.24 -2.07 -1.91 -1.74 -1.56 -1.36 -1.19 -1.09 -1.13 -1.19 -1.24 -1.29 -1.42 -1.47 -1.57 -1.53 -1.35 -1.20 -0.95 -0.77 -0.64 -0.62 -0.55 -0.45 -0.48 -0.27 -0.47 -0.30 -0.23 -0.31 -0.25 -0.17 -0.14 -0.54 -0.60 -0.62 -0.65 -0.64 -0.62 -0.60 -0.39 -0.20 -0.06 -0.00 -0.05 -0.16 -0.24 -0.26 -0.31 -0.30 -0.25 -0.35 -0.30 -0.24 -0.22 -0.22 -0.31 -0.28 -0.26 -0.26 -0.26 -0.19 -0.16 -0.18 -0.12 -0.13 -0.07 -0.13 -0.08 -0.11 -0.12 -0.10 -0.20 -0.15 -0.21 -0.17 -0.20 -0.28 -0.28 -0.27 -0.29 -0.33 -0.27 -0.16 -0.17 -0.17 -0.11 -0.12 -0.10 -0.10 0.03 0.04 0.12 0.18 0.26 0.19 0.29 0.42 0.44 0.46 0.48 0.51 0.51 0.56 0.53 0.51 0.49 0.48 0.47 0.45 0.48 0.55 0.54 0.66 0.97 1.23 1.52 1.89 2.15 2.66 3.17 3.73 3.77 3.85 3.71 3.51 3.31 -9999.00 -9999.00 -9999.00 -9999.00 -9999.00 -9999.00 -9999.00 -9999.00 -9999.00 -9999.00 -9999.00 -9999.00 -9999.00 -9999.00 -9999.00 -9999.00 -9999.00 -9999.00 -9999.00 -9999.00 -9999.00 -9999.00 -9999.00 -9999.00 -9999.00 -9999.00 -9999.00 -9999.00 -9999.00 -9999.00 -9999.00 -9999.00 -9999.00 -9999.00 -9999.00 -9999.00 -9999.00 -9999.00 -9999.00 -9999.00 -9999.00 -9999.00 -9999.00 -9999.00 -9999.00 -9999.00 -9999.00 -9999.00 -9999.00 -9999.00 -9999.00 -9999.00 -9999.00 -9999.00 -9999.00 -9999.00 -9999.00 -9999.00 -9999.00 -9999.00 -9999.00 -9999.00 -9999.00 -9999.00 -9999.00 -9999.00 -9999.00 -9999.00 -9999.00 -9999.00 -9999.00 -9999.00 -9999.00 -9999.00 -9999.00 -9999.00 -9999.00 -9999.00 -9999.00 -9999.00 -9999.00 -9999.00 -9999.00 -9999.00 -9999.00 -9999.00 -9999.00 -9999.00 -9999.00 -9999.00 -9999.00 -9999.00 -9999.00 -9999.00 -9999.00 -9999.00 -9999.00 -9999.00 -9999.00 -9999.00 -9999.00 -9999.00 -9999.00 -9999.00 -9999.00 -9999.00 -9999.00 -9999.00 -9999.00 -9999.00 -9999.00 -9999.00 -9999.00 -9999.00 -9999.00 -9999.00 -9999.00 -9999.00 -9999.00 -9999.00 -9999.00 -9999.00 -9999.00 -9999.00 -9999.00 -9999.00 -9999.00 -9999.00 -9999.00 -9999.00 -9999.00 -9999.00 -9999.00 -9999.00 -9999.00 -9999.00 -9999.00 -9999.00 -9999.00 -9999.00 -9999.00 -9999.00 -9999.00 -9999.00 -9999.00 -9999.00 -9999.00 -9999.00 -9999.00 -9999.00 -9999.00 -9999.00 -9999.00 -9999.00 -9999.00 -9999.00 -9999.00 -9999.00 -9999.00 -9999.00 -9999.00 -9999.00 -9999.00 -9999.00 -9999.00 -9999.00 -9999.00 -9999.00 -9999.00 -9999.00 -9999.00 -9999.00 -9999.00 -9999.00 2.57 2.53 2.83 3.33 3.70 3.90 3.77 3.74 2.95 2.43 1.86 1.64 1.41 1.22 1.01 0.79 0.58 0.39 0.39 0.38 0.38 0.18 0.07 0.14 0.13 -0.03 -0.17 -0.20 -0.31 -0.35 -0.34 -0.34 -0.44 -0.44 -0.44 -0.47 -0.53 -0.50 -0.52 -0.55 -0.59 -0.63 -0.65 -0.67 -0.79 -0.84 -0.91 -1.00 -0.94 -0.99 -1.04 -1.11 -1.18 -1.28 -1.31 -1.33
-4.80 -4.51 -4.48 -4.24 -4.05 -3.96 -3.95 -3.90 -3.77 -3.66 -3.55 -3.46 -3.30 -3.06 -2.86 -2.66 -2.46 -2.29 -2.14 -1.98 -1.81 -1.67 -1.56 -1.40 -1.23 -1.12 -1.16 -1.19 -1.16 -1.10 -1.22 -1.35 -1.44 -1.55 -1.59 -1.52 -1.34 -1.01 -0.78 -0.54 -0.45 -0.47 -0.43 -0.26 -0.34 -0.24 -0.17 -0.26 -0.20 -0.21 -0.25 -0.44 -0.53 -0.56 -0.66 -0.62 -0.66 -0.52 -0.21 -0.16 0.04 0.11 0.06 -0.05 -0.14 -0.19 -0.16 -0.19 -0.13 -0.20 -0.22 -0.22 -0.11 -0.20 -0.14 -0.12 -0.21 -0.13 -0.09 -0.14 -0.03 -0.06 0.12 0.05 0.11 0.07 0.15 0.06 0.19 -0.00 0.10 0.02 0.01 0.08 -0.00 0.03 0.01 -0.09 -0.06 -0.07 -0.09 -0.10 -0.05 -0.00 0.01 0.03 0.04 0.13 0.23 0.29 0.35 0.36 0.44 0.45 0.48 0.54 0.56 0.58 0.58 0.60 0.60 0.62 0.57 0.54 0.51 0.50 0.54 0.49 0.43 0.66 0.88 1.13 1.34 1.69 2.00 2.42 2.90 3.55 3.80 3.73 3.60 -9999.00 -9999.00 -9999.00 -9999.00 -9999.00 -9999.00 -9999.00 -9999.00 -9999.00 -9999.00 -9999.00 -9999.00 -9999.00 -9999.00 -9999.00 -9999.00 -9999.00 -9999.00 -9999.00 -9999.00 -9999.00 -9999.00 -9999.00 -9999.00 -9999.00 -9999.00 -9999.00 -9999.00 -9999.00 -9999.00 -9999.00 -9999.00 -9999.00 -9999.00 -9999.00 -9999.00 -9999.00 -9999.00 -9999.00 -9999.00 -9999.00 -9999.00 -9999.00 -9999.00 -9999.00 -9999.00 -9999.00 -9999.00 -9999.00 -9999.00 -9999.00 -9999.00 -9999.00 -9999.00 -9999.00 -9999.00 -9999.00 -9999.00 -9999.00 -9999.00 -9999.00 -9999.00 -9999.00 -9999.00 -9999.00 -9999.00 -9999.00 -9999.00 -9999.00 -9999.00 -9999.00 -9999.00 -9999.00 -9999.00 -9999.00 -9999.00 -9999.00 -9999.00 -9999.00 -9999.00 -9999.00 -9999.00 -9999.00 -9999.00 -9999.00 -9999.00 -9999.00 -9999.00 -9999.00 -9999.00 -9999.00 -9999.00 -9999.00 -9999.00 -9999.00 -9999.00 -9999.00 -9999.00 -9999.00 -9999.00 -9999.00 -9999.00 -9999.00 -9999.00 -9999.00 -9999.00 -9999.00 -9999.00 -9999.00 -9999.00 -9999.00 -9999.00 -9999.00 -9999.00 -9999.00 -9999.00 -9999.00 -9999.00 -9999.00 -9999.00 -9999.00 -9999.00 -9999.00 -9999.00 -9999.00 -9999.00 -9999.00 -9999.00 -9999.00 -9999.00 -9999.00 -9999.00 -9999.00 -9999.00 -9999.00 -9999.00 -9999.00 -9999.00 -9999.00 -9999.00 -9999.00 -9999.00 -9999.00 -9999.00 -9999.00 -9999.00 -9999.00 -9999.00 -9999.00 -9999.00 -9999.00 -9999.00 -9999.00 -9999.00 -9999.00 -9999.00 -9999.00 -9999.00 -9999.00 -9999.00 -9999.00 -9999.00 -9999.00 -9999.00 -9999.00 -9999.00 -9999.00 -9999.00 -9999.00 -9999.00 -9999.00 -9999.00 -9999.00 -9999.00 -9999.00 -9999.00 -9999.00 -9999.00 -9999.00 2.54 2.53 2.97 3.31 3.56 3.41 3.57 3.81 3.78 2.84 2.35 2.08 1.73 1.55 1.38 1.08 0.81 0.66 0.58 0.58 0.37 0.22 0.13 0.24 0.20 0.05 -0.16 -0.29 -0.38 -0.27 -0.26 -0.32 -0.39 -0.39 -0.39 -0.36 -0.40 -0.43 -0.47 -0.48 -0.52 -0.55 -0.55 -0.63 -0.68 -0.73 -0.86 -0.92 -0.84 -0.90 -0.94 -1.00 -1.06 -1.12 -1.24
-4.68 -4.38 -4.17 -3.93 -3.84 -3.80 -3.79 -3.76 -3.69 -3.58 -3.41 -3.24 -3.08 -2.92 -2.75 -2.55 -2.43 -2.21 -2.06 -1.91 -1.76 -1.66 -1.52 -1.37 -1.26 -1.19 -1.12 -1.11 -1.13 -1.14 -1.12 -1.17 -1.29 -1.37 -1.54 -1.62 -1.58 -1.52 -1.35 -0.85 -0.51 -0.41 -0.50 -0.22 -0.12 -0.18 -0.13 -0.09 -0.07 -0.18 -0.37 -0.50 -0.48 -0.40 -0.42 -0.43 -0.42 -0.32 -0.22 -0.05 0.08 0.16 0.08 0.05 -0.04 -0.06 -0.04 -0.07 -0.07 -0.03 -0.06 -0.12 -0.03 -0.09 -0.09 -0.09 -0.14 -0.01 0.01 0.01 0.07 0.16 0.28 0.22 0.19 0.25 0.25 0.22 0.26 0.23 0.23 0.21 0.27 0.19 0.16 0.19 0.19 0.15 0.11 0.10 0.13 0.20 0.22 0.15 0.16 0.23 0.33 0.40 0.43 0.48 0.51 0.55 0.58 0.75 0.69 0.65 0.70 0.70 0.70 0.70 0.71 0.69 0.59 0.53 0.48 0.54 0.53 0.51 0.79 1.10 1.31 1.51 1.95 2.15 2.64 3.15 3.72 3.73 3.62 3.37 -9999.00 -9999.00 -9999.00 -9999.00 -9999.00 -9999.00 -9999.00 -9999.00 -9999.00 -9999.00 -9999.00 -9999.00 -9999.00 -9999.00 -9999.00 -9999.00 -9999.00 -9999.00 -9999.00 -9999.00 -9999.00 -9999.00 -9999.00 -9999.00 -9999.00 -9999.00 -9999.00 -9999.00 -9999.00 -9999.00 -9999.00 -9999.00 -9999.00 -9999.00 -9999.00 -9999.00 -9999.00 -9999.00 -9999.00 -9999.00 -9999.00 -9999.00 -9999.00 -9999.00 -9999.00 -9999.00 -9999.00 -9999.00 -9999.00 -9999.00 -9999.00 -9999.00 -9999.00 -9999.00 -9999.00 -9999.00 -9999.00 -9999.00 -9999.00 -9999.00 -9999.00 -9999.00 -9999.00 -9999.00 -9999.00 -9999.00 -9999.00 -9999.00 -9999.00 -9999.00 -9999.00 -9999.00 -9999.00 -9999.00 -9999.00 -9999.00 -9999.00 -9999.00 -9999.00 -9999.00 -9999.00 -9999.00 -9999.00 -9999.00 -9999.00 -9999.00 -9999.00 -9999.00 -9999.00 -9999.00 -9999.00 -9999.00 -9999.00 -9999.00 -9999.00 -9999.00 -9999.00 -9999.00 -9999.00 -9999.00 -9999.00 -9999.00 -9999.00 -9999.00 -9999.00 -9999.00 -9999.00 -9999.00 -9999.00 -9999.00 -9999.00 -9999.00 -9999.00 -9999.00 -9999.00 -9999.00 -9999.00 -9999.00 -9999.00 -9999.00 -9999.00 -9999.00 -9999.00 -9999.00 -9999.00 -9999.00 -9999.00 -9999.00 -9999.00 -9999.00 -9999.00 -9999.00 -9999.00 -9999.00 -9999.00 -9999.00 -9999.00 -9999.00 -9999.00 -9999.00 -9999.00 -9999.00 -9999.00 -9999.00 -9999.00 -9999.00 -9999.00 -9999.00 -9999.00 -9999.00 -9999.00 -9999.00 -9999.00 -9999.00 -9999.00 -9999.00 -9999.00 -9999.00 -9999.00 -9999.00 -9999.00 -9999.00 -9999.00 -9999.00 -9999.00 -9999.00 -9999.00 -9999.00 -9999.00 -9999.00 -9999.00 -9999.00 -9999.00 -9999.00 -9999.00 -9999.00 -9999.00 -9999.00 -9999.00 -9999.00 -9999.00 2.52 2.57 2.94 3.28 3.04 3.20 3.44 3.80 3.77 3.84 3.10 2.48 2.08 1.81 1.66 1.48 1.25 1.02 0.82 0.56 0.48 0.39 0.31 0.32 0.17 0.08 0.00 -0.13 -0.22 -0.19 -0.23 -0.31 -0.33 -0.21 -0.20 -0.26 -0.30 -0.33 -0.38 -0.41 -0.38 -0.44 -0.47 -0.57 -0.64 -0.67 -0.73 -0.82 -0.75 -0.79 -0.86 -0.89 -0.95 -1.01
-4.57 -4.33 -4.09 -3.76 -3.68 -3.60 -3.57 -3.54 -3.52 -3.44 -3.28 -3.11 -2.95 -2.79 -2.62 -2.44 -2.31 -2.17 -2.03 -1.88 -1.73 -1.55 -1.45 -1.34 -1.26 -1.17 -1.13 -1.08 -1.10 -1.11 -1.13 -1.11 -1.12 -1.23 -1.35 -1.54 -1.64 -1.68 -1.61 -1.48 -0.88 -0.47 -0.39 -0.11 -0.09 -0.02 -0.01 -0.11 -0.11 -0.12 -0.35 -0.26 -0.35 -0.31 -0.32 -0.30 -0.27 -0.41 -0.25 -0.05 0.12 0.26 0.16 0.05 0.06 0.07 0.07 0.09 0.07 0.02 0.09 0.01 0.07 0.03 0.07 -0.02 0.04 0.14 0.13 0.12 0.19 0.25 0.36 0.35 0.38 0.40 0.40 0.42 0.42 0.44 0.39 0.38 0.45 0.36 0.33 0.36 0.39 0.33 0.31 0.29 0.36 0.38 0.38 0.33 0.42 0.50 0.52 0.58 0.63 0.60 0.68 0.74 0.80 0.78 0.83 0.80 0.80 0.80 0.79 0.73 0.78 0.74 0.66 0.61 0.56 0.58 0.66 0.90 1.22 1.49 1.68 2.11 2.38 2.91 3.81 3.92 3.97 3.68 3.11 3.06 -9999.00 -9999.00 -9999.00 -9999.00 -9999.00 -9999.00 -9999.00 -9999.00 -9999.00 -9999.00 -9999.00 -9999.00 -9999.00 -9999.00 -9999.00 -9999.00 -9999.00 -9999.00 -9999.00 -9999.00 -9999.00 -9999.00 -9999.00 -9999.00 -9999.00 -9999.00 -9999.00 -9999.00 -9999.00 -9999.00 -9999.00 -9999.00 -9999.00 -9999.00 -9999.00 -9999.00 -9999.00 -9999.00 -9999.00 -9999.00 -9999.00 -9999.00 -9999.00 -9999.00 -9999.00 -9999.00 -9999.00 -9999.00 -9999.00 -9999.00 -9999.00 -9999.00 -9999.00 -9999.00 -9999.00 -9999.00 -9999.00 -9999.00 -9999.00 -9999.00 -9999.00 -9999.00 -9999.00 -9999.00 -9999.00 -9999.00 -9999.00 -9999.00 -9999.00 -9999.00 -9999.00 -9999.00 -9999.00 -9999.00 -9999.00 -9999.00 -9999.00 -9999.00 -9999.00 -9999.00 -9999.00 -9999.00 -9999.00 -9999.00 -9999.00 -9999.00 -9999.00 -9999.00 -9999.00 -9999.00 -9999.00 -9999.00 -9999.00 -9999.00 -9999.00 -9999.00 -9999.00 -9999.00 -9999.00 -9999.00 -9999.00 -9999.00 -9999.00 -9999.00 -9999.00 -9999.00 -9999.00 -9999.00 -9999.00 -9999.00 -9999.00 -9999.00 -9999.00 -9999.00 -9999.00 -9999.00 -9999.00 -9999.00 -9999.00 -9999.00 -9999.00 -9999.00 -9999.00 -9999.00 -9999.00 -9999.00 -9999.00 -9999.00 -9999.00 -9999.00 -9999.00 -9999.00 -9999.00 -9999.00 -9999.00 -9999.00 -9999.00 -9999.00 -9999.00 -9999.00 -9999.00 -9999.00 -9999.00 -9999.00 -9999.00 -9999.00 -9999.00 -9999.00 -9999.00 -9999.00 -9999.00 -9999.00 -9999.00 -9999.00 -9999.00 -9999.00 -9999.00 -9999.00 -9999.00 -9999.00 -9999.00 -9999.00 -9999.00 -9999.00 -9999.00 -9999.00 -9999.00 -9999.00 -9999.00 -9999.00 -9999.00 -9999.00 -9999.00 -9999.00 -9999.00 -9999.00 -9999.00 -9999.00 -9999.00 -9999.00 -9999.00 -9999.00 2.52 2.55 2.91 3.25 2.97 2.95 3.20 3.40 3.76 3.83 3.73 3.54 2.68 2.33 2.08 1.93 1.70 1.46 1.26 1.06 0.91 0.73 0.50 0.42 0.41 0.35 0.20 0.05 0.06 -0.10 -0.28 -0.29 -0.14 -0.08 -0.13 -0.19 -0.21 -0.21 -0.25 -0.19 -0.22 -0.31 -0.44 -0.51 -0.58 -0.56 -0.63 -0.71 -0.66 -0.70 -0.74 -0.82 -0.84
-4.43 -4.19 -4.03 -3.72 -3.58 -3.51 -3.39 -3.35 -3.30 -3.21 -3.09 -2.96 -2.84 -2.68 -2.49 -2.35 -2.18 -2.01 -1.90 -1.79 -1.67 -1.54 -1.44 -1.34 -1.26 -1.19 -1.17 -1.20 -1.16 -1.12 -1.08 -1.07 -1.05 -1.08 -1.12 -1.26 -1.35 -1.52 -1.70 -1.70 -1.46 -1.01 -0.45 -0.30 -0.13 -0.02 0.12 0.15 0.10 0.05 -0.22 -0.20 -0.36 -0.35 -0.31 -0.40 -0.13 -0.15 -0.09 -0.03 0.13 0.21 0.19 0.16 0.12 0.14 0.12 0.16 0.13 0.14 0.14 0.17 0.14 0.13 0.20 0.16 0.24 0.16 0.28 0.34 0.40 0.46 0.48 0.44 0.47 0.51 0.61 0.51 0.51 0.57 0.58 0.66 0.57 0.50 0.49 0.52 0.52 0.47 0.51 0.44 0.46 0.57 0.63 0.58 0.64 0.64 0.70 0.71 0.66 0.74 0.88 0.85 0.94 0.99 0.99 0.99 0.98 0.89 0.89 0.81 0.77 0.74 0.75 0.77 0.82 0.94 1.18 1.43 1.61 1.91 2.27 2.75 3.32 4.13 4.05 4.01 3.73 3.39 2.85 2.82 -9999.00 -9999.00 -9999.00 -9999.00 -9999.00 -9999.00 -9999.00 -9999.00 -9999.00 -9999.00 -9999.00 -9999.00 -9999.00 -9999.00 -9999.00 -9999.00 -9999.00 -9999.00 -9999.00 -9999.00 -9999.00 -9999.00 -9999.00 -9999.00 -9999.00 -9999.00 -9999.00 -9999.00 -9999.00 -9999.00 -9999.00 -9999.00 -9999.00 -9999.00 -9999.00 -9999.00 -9999.00 -9999.00 -9999.00 -9999.00 -9999.00 -9999.00 -9999.00 -9999.00 -9999.00 -9999.00 -9999.00 -9999.00 -9999.00 -9999.00 -9999.00 -9999.00 -9999.00 -9999.00 -9999.00 -9999.00 -9999.00 -9999.00 -9999.00 -9999.00 -9999.00 -9999.00 -9999.00 -9999.00 -9999.00 -9999.00 -9999.00 -9999.00 -9999.00 -9999.00 -9999.00 -9999.00 -9999.00 -9999.00 -9999.00 -9999.00 -9999.00 -9999.00 -9999.00 -9999.00 -9999.00 -9999.00 -9999.00 -9999.00 -9999.00 -9999.00 -9999.00 -9999.00 -9999.00 -9999.00 -9999.00 -9999.00 -9999.00 -9999.00 -9999.00 -9999.00 -9999.00 -9999.00 -9999.00 -9999.00 -9999.00 -9999.00 -9999.00 -9999.00 -9999.00 -9999.00 -9999.00 -9999.00 -9999.00 -9999.00 -9999.00 -9999.00 -9999.00 -9999.00 -9999.00 -9999.00 -9999.00 -9999.00 -9999.00 -9999.00 -9999.00 -9999.00 -9999.00 -9999.00 -9999.00 -9999.00 -9999.00 -9999.00 -9999.00 -9999.00 -9999.00 -9999.00 -9999.00 -9999.00 -9999.00 -9999.00 -9999.00 -9999.00 -9999.00 -9999.00 -9999.00 -9999.00 -9999.00 -9999.00 -9999.00 -9999.00 -9999.00 -9999.00 -9999.00 -9999.00 -9999.00 -9999.00 -9999.00 -9999.00 -9999.00 -9999.00 -9999.00 -9999.00 -9999.00 -9999.00 -9999.00 -9999.00 -9999.00 -9999.00 -9999.00 -9999.00 -9999.00 -9999.00 -9999.00 -9999.00 -9999.00 -9999.00 -9999.00 -9999.00 -9999.00 -9999.00 -9999.00 -9999.00 -9999.00 -9999.00 -9999.00 -9999.00 -9999.00 2.51 2.50 2.90 3.12 2.96 2.75 3.07 3.45 3.61 3.77 3.79 3.71 3.59 3.41 2.74 2.31 1.98 2.01 1.77 1.58 1.36 1.22 0.87 0.65 0.56 0.46 0.38 0.32 0.04 -0.21 -0.17 -0.01 0.04 -0.05 -0.11 -0.18 -0.22 -0.10 -0.08 -0.07 -0.18 -0.25 -0.39 -0.45 -0.48 -0.45 -0.53 -0.59 -0.58 -0.60 -0.65 -0.73
-4.26 -4.10 -3.79 -3.64 -3.43 -3.31 -3.20 -3.12 -3.10 -3.01 -2.89 -2.76 -2.69 -2.58 -2.50 -2.29 -2.10 -1.95 -1.80 -1.72 -1.67 -1.57 -1.44 -1.36 -1.26 -1.23 -1.21 -1.19 -1.16 -1.13 -1.11 -1.01 -0.97 -0.93 -0.97 -1.02 -1.08 -1.25 -1.50 -1.64 -1.66 -1.66 -1.09 -0.57 -0.26 0.04 0.24 0.31 0.29 0.16 0.00 -0.15 -0.36 -0.37 -0.33 -0.34 -0.17 -0.13 -0.08 -0.04 0.23 0.05 0.17 0.21 0.20 0.22 0.04 0.17 0.21 0.22 0.24 0.22 0.16 0.29 0.33 0.30 0.40 0.31 0.35 0.41 0.48 0.52 0.53 0.57 0.59 0.63 0.63 0.66 0.62 0.69 0.68 0.76 0.75 0.64 0.66 0.63 0.65 0.58 0.64 0.65 0.67 0.64 0.77 0.76 0.76 0.77 0.80 0.77 0.81 0.83 1.02 1.08 1.12 1.13 1.08 1.12 1.13 1.10 1.03 0.89 0.83 0.94 0.96 1.06 1.25 1.41 1.61 2.04 2.26 2.68 3.18 4.13 4.17 4.18 4.03 3.58 -9999.00 -9999.00 -9999.00 -9999.00 -9999.00 -9999.00 -9999.00 -9999.00 -9999.00 -9999.00 -9999.00 -9999.00 -9999.00 -9999.00 -9999.00 -9999.00 -9999.00 -9999.00 -9999.00 -9999.00 -9999.00 -9999.00 -9999.00 -9999.00 -9999.00 -9999.00 -9999.00 -9999.00 -9999.00 -9999.00 -9999.00 -9999.00 -9999.00 -9999.00 -9999.00 -9999.00 -9999.00 -9999.00 -9999.00 -9999.00 -9999.00 -9999.00 -9999.00 -9999.00 -9999.00 -9999.00 -9999.00 -9999.00 -9999.00 -9999.00 -9999.00 -9999.00 -9999.00 -9999.00 -9999.00 -9999.00 -9999.00 -9999.00 -9999.00 -9999.00 -9999.00 -9999.00 -9999.00 -9999.00 -9999.00 -9999.00 -9999.00 -9999.00 -9999.00 -9999.00 -9999.00 -9999.00 -9999.00 -9999.00 -9999.00 -9999.00 -9999.00 -9999.00 -9999.00 -9999.00 -9999.00 -9999.00 -9999.00 -9999.00 -9999.00 -9999.00 -9999.00 -9999.00 -9999.00 -9999.00 -9999.00 -9999.00 -9999.00 -9999.00 -9999.00 -9999.00 -9999.00 -9999.00 -9999.00 -9999.00 -9999.00 -9999.00 -9999.00 -9999.00 -9999.00 -9999.00 -9999.00 -9999.00 -9999.00 -9999.00 -9999.00 -9999.00 -9999.00 -9999.00 -9999.00 -9999.00 -9999.00 -9999.00 -9999.00 -9999.00 -9999.00 -9999.00 -9999.00 -9999.00 -9999.00 -9999.00 -9999.00 -9999.00 -9999.00 -9999.00 -9999.00 -9999.00 -9999.00 -9999.00 -9999.00 -9999.00 -9999.00 -9999.00 -9999.00 -9999.00 -9999.00 -9999.00 -9999.00 -9999.00 -9999.00 -9999.00 -9999.00 -9999.00 -9999.00 -9999.00 -9999.00 -9999.00 -9999.00 -9999.00 -9999.00 -9999.00 -9999.00 -9999.00 -9999.00 -9999.00 -9999.00 -9999.00 -9999.00 -9999.00 -9999.00 -9999.00 -9999.00 -9999.00 -9999.00 -9999.00 -9999.00 -9999.00 -9999.00 -9999.00 -9999.00 -9999.00 -9999.00 -9999.00 -9999.00 -9999.00 -9999.00 -9999.00 -9999.00 -9999.00 -9999.00 -9999.00 -9999.00 -9999.00 2.44 2.58 2.76 3.20 2.72 2.72 2.91 3.09 3.43 3.68 3.82 3.85 3.78 3.72 3.57 3.14 2.83 2.44 2.18 1.99 1.74 1.41 1.18 0.95 0.73 0.68 0.47 0.19 -0.11 -0.01 0.12 0.13 0.07 -0.01 -0.09 -0.03 0.02 -0.03 -0.02 -0.03 -0.08 -0.29 -0.26 -0.39 -0.37 -0.34 -0.45 -0.47 -0.49 -0.51 -0.57
-4.14 -3.97 -3.74 -3.46 -3.32 -3.22 -3.11 -3.05 -2.98 -2.85 -2.64 -2.58 -2.54 -2.46 -2.33 -2.17 -2.02 -1.90 -1.76 -1.62 -1.60 -1.52 -1.47 -1.39 -1.27 -1.21 -1.18 -1.15 -1.13 -1.11 -1.07 -0.93 -0.90 -0.88 -0.85 -0.81 -0.84 -0.93 -1.05 -1.22 -1.57 -1.79 -1.86 -1.30 -0.74 -0.27 0.13 0.26 0.47 0.38 0.32 -0.13 -0.33 -0.37 -0.32 -0.25 -0.06 -0.01 0.01 0.14 0.10 0.19 0.10 0.24 0.26 0.28 0.21 0.30 0.31 0.27 0.36 0.23 0.29 0.40 0.45 0.45 0.44 0.48 0.47 0.50 0.57 0.63 0.63 0.66 0.72 0.80 0.85 0.86 0.84 0.86 0.89 0.82 0.89 0.78 0.78 0.76 0.74 0.69 0.72 0.76 0.66 0.77 0.80 0.84 0.86 0.88 0.87 0.89 0.88 0.96 1.10 1.25 1.27 1.28 1.20 1.23 1.20 1.18 1.13 0.96 1.03 1.22 1.33 1.49 1.69 1.91 2.32 2.84 3.32 3.45 3.65 3.84 3.76 -9999.00 -9999.00 -9999.00 -9999.00 -9999.00 -9999.00 -9999.00 -9999.00 -9999.00 -9999.00 -9999.00 -9999.00 -9999.00 -9999.00 -9999.00 -9999.00 -9999.00 -9999.00 -9999.00 -9999.00 -9999.00 -9999.00 -9999.00 -9999.00 -9999.00 -9999.00 -9999.00 -9999.00 -9999.00 -9999.00 -9999.00 -9999.00 -9999.00 -9999.00 -9999.00 -9999.00 -9999.00 -9999.00 -9999.00 -9999.00 -9999.00 -9999.00 -9999.00 -9999.00 -9999.00 -9999.00 -9999.00 -9999.00 -9999.00 -9999.00 -9999.00 -9999.00 -9999.00 -9999.00 -9999.00 -9999.00 -9999.00 -9999.00 -9999.00 -9999.00 -9999.00 -9999.00 -9999.00 -9999.00 -9999.00 -9999.00 -9999.00 -9999.00 -9999.00 -9999.00 -9999.00 -9999.00 -9999.00 -9999.00 -9999.00 -9999.00 -9999.00 -9999.00 -9999.00 -9999.00 -9999.00 -9999.00 -9999.00 -9999.00 -9999.00 -9999.00 -9999.00 -9999.00 -9999.00 -9999.00 -9999.00 -9999.00 -9999.00 -9999.00 -9999.00 -9999.00 -9999.00 -9999.00 -9999.00 -9999.00 -9999.00 -9999.00 -9999.00 -9999.00 -9999.00 -9999.00 -9999.00 -9999.00 -9999.00 -9999.00 -9999.00 -9999.00 -9999.00 -9999.00 -9999.00 -9999.00 -9999.00 -9999.00 -9999.00 -9999.00 -9999.00 -9999.00 -9999.00 -9999.00 -9999.00 -9999.00 -9999.00 -9999.00 -9999.00 -9999.00 -9999.00 -9999.00 -9999.00 -9999.00 -9999.00 -9999.00 -9999.00 -9999.00 -9999.00 -9999.00 -9999.00 -9999.00 -9999.00 -9999.00 -9999.00 -9999.00 -9999.00 -9999.00 -9999.00 -9999.00 -9999.00 -9999.00 -9999.00 -9999.00 -9999.00 -9999.00 -9999.00 -9999.00 -9999.00 -9999.00 -9999.00 -9999.00 -9999.00 -9999.00 -9999.00 -9999.00 -9999.00 -9999.00 -9999.00 -9999.00 -9999.00 -9999.00 -9999.00 -9999.00 -9999.00 -9999.00 -9999.00 -9999.00 -9999.00 -9999.00 -9999.00 -9999.00 -9999.00 -9999.00 -9999.00 -9999.00 -9999.00 -9999.00 -9999.00 -9999.00 -9999.00 -9999.00 2.40 2.41 2.85 3.05 2.53 2.60 2.75 2.79 3.16 3.45 3.56 3.80 3.84 3.88 3.89 3.77 3.40 3.00 2.68 2.32 2.05 1.77 1.65 1.40 1.07 0.83 0.66 0.37 0.22 0.25 0.22 0.19 0.11 -0.12 -0.04 0.01 0.00 0.01 0.01 -0.04 -0.06 -0.12 -0.28 -0.29 -0.27 -0.23 -0.37 -0.36 -0.38 -0.43
