ncols	377
nrows	32
xllcorner	295705
yllcorner	131770
cellsize	5.00
NODATA_value	-9999.00
-9999.00 -9999.00 -9999.00 -9999.00 -9999.00 -9999.00 -9999.00 -9999.00 -9999.00 -9999.00 -9999.00 -9999.00 -9999.00 -9999.00 -9999.00 -9999.00 -9999.00 -9999.00 -9999.00 -9999.00 -9999.00 -9999.00 -9999.00 -9999.00 -9999.00 -9999.00 -9999.00 -9999.00 -9999.00 -9999.00 -9999.00 -9999.00 -9999.00 -9999.00 -9999.00 -9999.00 -9999.00 -9999.00 -9999.00 -9999.00 -9999.00 -9999.00 -9999.00 -9999.00 -9999.00 -9999.00 -9999.00 -9999.00 -9999.00 -9999.00 -9999.00 -9999.00 -9999.00 -9999.00 -9999.00 -9999.00 -9999.00 -9999.00 -9999.00 -9999.00 -9999.00 -9999.00 -9999.00 -9999.00 -9999.00 -9999.00 -9999.00 -9999.00 -9999.00 -9999.00 -9999.00 -9999.00 -9999.00 -9999.00 -9999.00 -9999.00 -9999.00 -9999.00 -9999.00 -9999.00 -9999.00 -9999.00 -9999.00 -9999.00 -9999.00 -9999.00 -9999.00 -9999.00 -9999.00 -9999.00 -9999.00 -9999.00 -9999.00 -9999.00 -9999.00 -9999.00 -9999.00 -9999.00 -9999.00 -9999.00 -9999.00 -9999.00 -9999.00 -9999.00 -9999.00 -9999.00 -9999.00 -9999.00 -9999.00 -9999.00 -9999.00 -9999.00 -9999.00 -9999.00 -9999.00 -9999.00 -9999.00 -9999.00 -9999.00 -9999.00 -9999.00 -9999.00 -9999.00 -9999.00 -9999.00 -9999.00 -9999.00 -20.40 -20.31 -20.19 -20.09 -20.00 -19.91 -19.80 -19.73 -19.65 -19.60 -19.54 -19.47 -19.38 -19.28 -19.19 -19.14 -19.17 -19.16 -19.18 -19.19 -19.23 -19.24 -19.25 -19.23 -19.15 -19.03 -18.92 -18.89 -18.78 -18.66 -18.53 -18.41 -18.38 -18.42 -18.29 -18.36 -18.23 -18.12 -18.15 -18.10 -18.08 -18.05 -18.00 -17.96 -17.92 -17.87 -17.79 -17.72 -17.64 -17.56 -17.48 -17.39 -17.27 -17.13 -17.00 -16.86 -16.73 -16.60 -16.48 -16.36 -16.27 -16.20 -16.08 -15.98 -15.90 -15.79 -15.70 -15.62 -15.57 -15.47 -15.43 -15.38 -15.30 -15.24 -15.18 -15.14 -15.10 -15.03 -14.99 -14.90 -14.86 -14.81 -14.74 -14.69 -14.67 -14.63 -14.61 -14.64 -14.57 -14.47 -14.38 -14.30 -14.22 -14.15 -14.10 -14.07 -14.03 -14.05 -14.00 -13.97 -13.88 -13.82 -13.77 -13.69 -13.66 -13.64 -13.64 -13.59 -13.52 -13.47 -13.40 -13.41 -13.43 -13.44 -13.47 -13.45 -13.49 -13.50 -13.50 -13.50 -13.51 -13.51 -13.52 -13.61 -13.45 -13.39 -13.36 -13.35 -13.32 -13.30 -13.25 -13.19 -13.13 -13.09 -13.05 -13.03 -12.99 -13.03 -13.07 -13.11 -13.14 -13.22 -13.21 -13.17 -13.27 -13.28 -13.20 -13.13 -13.04 -12.95 -12.77 -12.61 -12.48 -12.38 -12.23 -12.11 -11.86 -11.78 -11.64 -11.56 -11.46 -11.40 -11.41 -11.37 -11.34 -11.32 -11.27 -11.24 -11.10 -10.99 -10.76 -10.71 -10.62 -10.65 -10.67 -10.71 -10.78 -10.83 -10.87 -11.00 -11.04 -11.02 -11.05 -11.04 -11.01 -10.99 -10.96 -10.86 -10.74 -10.62 -10.52 -10.41 -10.30 -10.24 -10.18 -10.11 -10.06 -10.05 -10.05 -10.03 -9.91 -9.81 -9.70 -9.68 -9.69 -9.68 -9.66 -9.66 -9.64 -9.67 -9.64 -9.67 -9.67 -9.66 -9.57 -9.60 -9.62 -9.65 -9.64 -9.63 -9.67 -9.68 -9.67 -9.67 -9.56 -9.41 -9.33 -9.26 -9.32 -9.36 -9.38 -9.42 -9.44 -9.52 -9.57 -9.58 -9.58 -9.58 -9.59 -9.60 -9.59 -9.55 -9.56 -9.59 -9.63 -9.63 -9.62 -9.60 -9.66 -9.57
-9999.00 -9999.00 -9999.00 -9999.00 -9999.00 -9999.00 -9999.00 -9999.00 -9999.00 -9999.00 -9999.00 -9999.00 -9999.00 -9999.00 -9999.00 -9999.00 -9999.00 -9999.00 -9999.00 -9999.00 -9999.00 -9999.00 -9999.00 -9999.00 -9999.00 -9999.00 -9999.00 -9999.00 -9999.00 -9999.00 -9999.00 -9999.00 -9999.00 -9999.00 -9999.00 -9999.00 -9999.00 -9999.00 -9999.00 -9999.00 -9999.00 -9999.00 -9999.00 -9999.00 -9999.00 -9999.00 -9999.00 -9999.00 -9999.00 -9999.00 -9999.00 -9999.00 -9999.00 -9999.00 -9999.00 -9999.00 -9999.00 -9999.00 -9999.00 -9999.00 -9999.00 -9999.00 -9999.00 -9999.00 -9999.00 -9999.00 -9999.00 -9999.00 -9999.00 -9999.00 -9999.00 -9999.00 -9999.00 -9999.00 -9999.00 -9999.00 -9999.00 -9999.00 -9999.00 -9999.00 -9999.00 -9999.00 -9999.00 -9999.00 -9999.00 -9999.00 -9999.00 -9999.00 -9999.00 -9999.00 -9999.00 -9999.00 -9999.00 -9999.00 -9999.00 -9999.00 -9999.00 -9999.00 -9999.00 -9999.00 -9999.00 -9999.00 -9999.00 -9999.00 -9999.00 -9999.00 -9999.00 -9999.00 -9999.00 -9999.00 -9999.00 -9999.00 -9999.00 -9999.00 -9999.00 -9999.00 -9999.00 -9999.00 -9999.00 -9999.00 -9999.00 -9999.00 -9999.00 -9999.00 -9999.00 -9999.00 -20.43 -20.34 -20.21 -20.13 -20.06 -19.95 -19.85 -19.76 -19.70 -19.62 -19.53 -19.45 -19.36 -19.27 -19.19 -19.13 -19.16 -19.14 -19.15 -19.18 -19.21 -19.20 -19.25 -19.27 -19.23 -19.14 -19.08 -18.99 -18.87 -18.75 -18.61 -18.48 -18.41 -18.31 -18.33 -18.30 -18.09 -18.06 -18.12 -18.09 -18.05 -18.00 -17.95 -17.89 -17.84 -17.76 -17.69 -17.59 -17.49 -17.40 -17.31 -17.22 -17.13 -17.03 -16.89 -16.75 -16.62 -16.50 -16.38 -16.26 -16.17 -16.09 -16.02 -15.95 -15.84 -15.72 -15.63 -15.55 -15.48 -15.43 -15.38 -15.34 -15.26 -15.19 -15.14 -15.08 -15.04 -14.97 -14.92 -14.88 -14.82 -14.74 -14.68 -14.64 -14.60 -14.57 -14.55 -14.52 -14.50 -14.42 -14.37 -14.27 -14.20 -14.14 -14.09 -14.03 -14.03 -14.02 -13.94 -13.96 -13.87 -13.85 -13.75 -13.70 -13.64 -13.62 -13.61 -13.51 -13.43 -13.36 -13.33 -13.31 -13.32 -13.34 -13.35 -13.33 -13.35 -13.39 -13.37 -13.39 -13.38 -13.46 -13.49 -13.46 -13.38 -13.34 -13.28 -13.28 -13.33 -13.29 -13.23 -13.16 -13.14 -13.10 -13.07 -13.05 -13.05 -13.05 -13.05 -13.06 -13.07 -13.08 -13.19 -13.10 -13.21 -13.24 -13.17 -13.06 -13.00 -12.85 -12.70 -12.58 -12.46 -12.30 -12.13 -12.00 -11.93 -11.76 -11.58 -11.46 -11.35 -11.21 -11.27 -11.28 -11.26 -11.19 -11.19 -11.15 -11.17 -11.01 -10.86 -10.74 -10.65 -10.65 -10.69 -10.71 -10.79 -10.83 -10.82 -10.88 -10.92 -10.95 -10.98 -10.97 -10.95 -10.93 -10.92 -10.88 -10.80 -10.66 -10.54 -10.44 -10.35 -10.25 -10.19 -10.13 -10.07 -9.99 -9.95 -9.91 -9.91 -9.85 -9.77 -9.67 -9.62 -9.64 -9.64 -9.63 -9.64 -9.64 -9.63 -9.63 -9.62 -9.61 -9.59 -9.57 -9.58 -9.60 -9.59 -9.61 -9.57 -9.54 -9.54 -9.53 -9.50 -9.43 -9.40 -9.39 -9.44 -9.46 -9.46 -9.43 -9.39 -9.38 -9.42 -9.46 -9.47 -9.47 -9.50 -9.52 -9.54 -9.55 -9.54 -9.53 -9.52 -9.52 -9.53 -9.54 -9.58 -9.55 -9.52
-9999.00 -9999.00 -9999.00 -9999.00 -9999.00 -9999.00 -9999.00 -9999.00 -9999.00 -9999.00 -9999.00 -9999.00 -9999.00 -9999.00 -9999.00 -9999.00 -9999.00 -9999.00 -9999.00 -9999.00 -9999.00 -9999.00 -9999.00 -9999.00 -9999.00 -9999.00 -9999.00 -9999.00 -9999.00 -9999.00 -9999.00 -9999.00 -9999.00 -9999.00 -9999.00 -9999.00 -9999.00 -9999.00 -9999.00 -9999.00 -9999.00 -9999.00 -9999.00 -9999.00 -9999.00 -9999.00 -9999.00 -9999.00 -9999.00 -9999.00 -9999.00 -9999.00 -9999.00 -9999.00 -9999.00 -9999.00 -9999.00 -9999.00 -9999.00 -9999.00 -9999.00 -9999.00 -9999.00 -9999.00 -9999.00 -9999.00 -9999.00 -9999.00 -9999.00 -9999.00 -9999.00 -9999.00 -9999.00 -9999.00 -9999.00 -9999.00 -9999.00 -9999.00 -9999.00 -9999.00 -9999.00 -9999.00 -9999.00 -9999.00 -9999.00 -9999.00 -9999.00 -9999.00 -9999.00 -9999.00 -9999.00 -9999.00 -9999.00 -9999.00 -9999.00 -9999.00 -9999.00 -9999.00 -9999.00 -9999.00 -9999.00 -9999.00 -9999.00 -9999.00 -9999.00 -9999.00 -9999.00 -9999.00 -9999.00 -9999.00 -9999.00 -9999.00 -9999.00 -9999.00 -9999.00 -9999.00 -9999.00 -9999.00 -9999.00 -9999.00 -9999.00 -9999.00 -9999.00 -9999.00 -20.56 -20.46 -20.35 -20.23 -20.14 -20.04 -19.99 -19.90 -19.84 -19.76 -19.65 -19.56 -19.44 -19.34 -19.25 -19.18 -19.14 -19.14 -19.13 -19.12 -19.16 -19.18 -19.19 -19.23 -19.24 -19.26 -19.25 -19.18 -19.09 -18.97 -18.85 -18.67 -18.60 -18.52 -18.30 -18.34 -18.20 -18.01 -18.09 -18.08 -18.06 -18.02 -17.97 -17.90 -17.84 -17.75 -17.66 -17.56 -17.45 -17.34 -17.23 -17.14 -17.05 -16.97 -16.87 -16.77 -16.64 -16.52 -16.40 -16.29 -16.17 -16.09 -16.00 -15.93 -15.84 -15.74 -15.63 -15.55 -15.49 -15.40 -15.37 -15.32 -15.25 -15.21 -15.13 -15.06 -15.04 -14.98 -14.94 -14.87 -14.80 -14.74 -14.67 -14.61 -14.58 -14.54 -14.51 -14.48 -14.45 -14.44 -14.39 -14.32 -14.26 -14.19 -14.11 -14.05 -14.03 -14.01 -13.95 -13.93 -13.92 -13.92 -13.83 -13.80 -13.75 -13.70 -13.64 -13.52 -13.40 -13.33 -13.28 -13.22 -13.19 -13.22 -13.25 -13.25 -13.22 -13.26 -13.30 -13.32 -13.29 -13.33 -13.32 -13.33 -13.35 -13.32 -13.30 -13.26 -13.22 -13.21 -13.18 -13.18 -13.16 -13.10 -13.09 -13.08 -13.04 -13.03 -13.04 -13.01 -13.00 -12.99 -12.99 -13.02 -13.00 -13.10 -13.10 -13.07 -13.02 -12.92 -12.79 -12.67 -12.49 -12.32 -12.19 -12.12 -12.02 -11.91 -11.70 -11.51 -11.32 -11.20 -11.18 -11.17 -11.19 -11.16 -11.14 -11.08 -11.07 -11.05 -11.02 -10.91 -10.77 -10.62 -10.50 -10.52 -10.65 -10.76 -10.78 -10.81 -10.85 -10.87 -10.89 -10.87 -10.88 -10.85 -10.85 -10.83 -10.81 -10.81 -10.72 -10.57 -10.47 -10.38 -10.30 -10.22 -10.14 -10.10 -10.02 -9.97 -9.92 -9.90 -9.90 -9.82 -9.72 -9.62 -9.55 -9.55 -9.54 -9.54 -9.57 -9.59 -9.61 -9.61 -9.62 -9.60 -9.58 -9.49 -9.48 -9.51 -9.57 -9.58 -9.51 -9.47 -9.43 -9.43 -9.43 -9.43 -9.43 -9.44 -9.45 -9.45 -9.44 -9.43 -9.41 -9.43 -9.45 -9.46 -9.46 -9.46 -9.46 -9.48 -9.49 -9.48 -9.47 -9.46 -9.45 -9.44 -9.41 -9.39 -9.43 -9.41 -9.39
-9999.00 -9999.00 -9999.00 -9999.00 -9999.00 -9999.00 -9999.00 -9999.00 -9999.00 -9999.00 -9999.00 -9999.00 -9999.00 -9999.00 -9999.00 -9999.00 -9999.00 -9999.00 -9999.00 -9999.00 -9999.00 -9999.00 -9999.00 -9999.00 -9999.00 -9999.00 -9999.00 -9999.00 -9999.00 -9999.00 -9999.00 -9999.00 -9999.00 -9999.00 -9999.00 -9999.00 -9999.00 -9999.00 -9999.00 -9999.00 -9999.00 -9999.00 -9999.00 -9999.00 -9999.00 -9999.00 -9999.00 -9999.00 -9999.00 -9999.00 -9999.00 -9999.00 -9999.00 -9999.00 -9999.00 -9999.00 -9999.00 -9999.00 -9999.00 -9999.00 -9999.00 -9999.00 -9999.00 -9999.00 -9999.00 -9999.00 -9999.00 -9999.00 -9999.00 -9999.00 -9999.00 -9999.00 -9999.00 -9999.00 -9999.00 -9999.00 -9999.00 -9999.00 -9999.00 -9999.00 -9999.00 -9999.00 -9999.00 -9999.00 -9999.00 -9999.00 -9999.00 -9999.00 -9999.00 -9999.00 -9999.00 -9999.00 -9999.00 -9999.00 -9999.00 -9999.00 -9999.00 -9999.00 -9999.00 -9999.00 -9999.00 -9999.00 -9999.00 -9999.00 -9999.00 -9999.00 -9999.00 -9999.00 -9999.00 -9999.00 -9999.00 -9999.00 -9999.00 -9999.00 -9999.00 -9999.00 -9999.00 -9999.00 -9999.00 -9999.00 -9999.00 -9999.00 -9999.00 -20.58 -20.47 -20.36 -20.24 -20.15 -20.06 -20.00 -19.95 -19.90 -19.82 -19.71 -19.61 -19.49 -19.37 -19.22 -19.16 -19.13 -19.11 -19.09 -19.12 -19.14 -19.13 -19.18 -19.18 -19.21 -19.20 -19.23 -19.22 -19.18 -19.07 -18.94 -18.77 -18.69 -18.60 -18.41 -18.41 -18.12 -18.00 -18.10 -18.05 -18.03 -17.97 -17.92 -17.87 -17.77 -17.67 -17.57 -17.43 -17.29 -17.19 -17.06 -16.97 -16.87 -16.80 -16.70 -16.60 -16.54 -16.42 -16.31 -16.19 -16.07 -15.98 -15.91 -15.81 -15.72 -15.63 -15.55 -15.45 -15.39 -15.34 -15.27 -15.21 -15.15 -15.11 -15.06 -15.01 -15.00 -14.93 -14.87 -14.80 -14.73 -14.67 -14.60 -14.57 -14.51 -14.46 -14.45 -14.41 -14.37 -14.34 -14.30 -14.27 -14.23 -14.13 -14.07 -14.03 -14.00 -13.95 -13.92 -13.91 -13.87 -13.88 -13.90 -13.85 -13.83 -13.75 -13.60 -13.47 -13.32 -13.24 -13.20 -13.08 -13.08 -13.11 -13.14 -13.17 -13.16 -13.16 -13.21 -13.23 -13.23 -13.25 -13.25 -13.26 -13.27 -13.25 -13.25 -13.19 -13.19 -13.15 -13.17 -13.14 -13.16 -13.13 -13.13 -13.06 -13.05 -13.02 -12.99 -12.96 -12.91 -12.97 -12.96 -12.95 -12.91 -12.91 -12.90 -12.88 -12.89 -12.82 -12.71 -12.57 -12.38 -12.23 -12.11 -12.02 -11.91 -11.80 -11.64 -11.46 -11.27 -11.14 -11.12 -11.11 -11.12 -11.09 -11.04 -10.99 -11.00 -10.98 -10.94 -10.88 -10.81 -10.59 -10.47 -10.42 -10.52 -10.60 -10.65 -10.68 -10.75 -10.82 -10.81 -10.83 -10.84 -10.81 -10.80 -10.74 -10.73 -10.71 -10.68 -10.56 -10.45 -10.39 -10.33 -10.25 -10.17 -10.15 -10.10 -10.06 -10.02 -9.95 -9.88 -9.84 -9.77 -9.69 -9.63 -9.60 -9.59 -9.53 -9.49 -9.46 -9.49 -9.53 -9.57 -9.58 -9.50 -9.44 -9.46 -9.46 -9.43 -9.43 -9.47 -9.44 -9.36 -9.39 -9.43 -9.44 -9.46 -9.48 -9.47 -9.47 -9.46 -9.46 -9.46 -9.45 -9.45 -9.44 -9.44 -9.45 -9.43 -9.41 -9.40 -9.38 -9.38 -9.39 -9.40 -9.41 -9.39 -9.35 -9.30 -9.27 -9.23 -9.21
-9999.00 -9999.00 -9999.00 -9999.00 -9999.00 -9999.00 -9999.00 -9999.00 -9999.00 -9999.00 -9999.00 -9999.00 -9999.00 -9999.00 -9999.00 -9999.00 -9999.00 -9999.00 -9999.00 -9999.00 -9999.00 -9999.00 -9999.00 -9999.00 -9999.00 -9999.00 -9999.00 -9999.00 -9999.00 -9999.00 -9999.00 -9999.00 -9999.00 -9999.00 -9999.00 -9999.00 -9999.00 -9999.00 -9999.00 -9999.00 -9999.00 -9999.00 -9999.00 -9999.00 -9999.00 -9999.00 -9999.00 -9999.00 -9999.00 -9999.00 -9999.00 -9999.00 -9999.00 -9999.00 -9999.00 -9999.00 -9999.00 -9999.00 -9999.00 -9999.00 -9999.00 -9999.00 -9999.00 -9999.00 -9999.00 -9999.00 -9999.00 -9999.00 -9999.00 -9999.00 -9999.00 -9999.00 -9999.00 -9999.00 -9999.00 -9999.00 -9999.00 -9999.00 -9999.00 -9999.00 -9999.00 -9999.00 -9999.00 -9999.00 -9999.00 -9999.00 -9999.00 -9999.00 -9999.00 -9999.00 -9999.00 -9999.00 -9999.00 -9999.00 -9999.00 -9999.00 -9999.00 -9999.00 -9999.00 -9999.00 -9999.00 -9999.00 -9999.00 -9999.00 -9999.00 -9999.00 -9999.00 -9999.00 -9999.00 -9999.00 -9999.00 -9999.00 -9999.00 -9999.00 -9999.00 -9999.00 -9999.00 -9999.00 -9999.00 -9999.00 -9999.00 -9999.00 -20.59 -20.49 -20.38 -20.26 -20.16 -20.07 -20.02 -19.96 -19.91 -19.85 -19.77 -19.68 -19.55 -19.46 -19.29 -19.18 -19.12 -19.07 -19.07 -19.09 -19.11 -19.11 -19.14 -19.14 -19.16 -19.18 -19.20 -19.18 -19.16 -19.15 -19.02 -18.89 -18.81 -18.69 -18.59 -18.48 -18.19 -18.13 -18.10 -18.04 -18.00 -17.93 -17.88 -17.79 -17.68 -17.58 -17.46 -17.33 -17.18 -17.03 -16.88 -16.79 -16.70 -16.63 -16.53 -16.46 -16.37 -16.29 -16.20 -16.09 -15.97 -15.89 -15.81 -15.71 -15.63 -15.55 -15.48 -15.40 -15.31 -15.22 -15.17 -15.09 -15.07 -15.01 -14.98 -14.96 -14.94 -14.88 -14.81 -14.71 -14.66 -14.61 -14.56 -14.52 -14.47 -14.42 -14.34 -14.33 -14.28 -14.26 -14.23 -14.20 -14.14 -14.08 -14.04 -13.99 -13.95 -13.91 -13.89 -13.87 -13.84 -13.86 -13.88 -13.89 -13.85 -13.71 -13.59 -13.44 -13.31 -13.17 -13.00 -12.95 -12.96 -12.99 -13.02 -13.05 -13.08 -13.07 -13.07 -13.08 -13.21 -13.17 -13.18 -13.18 -13.17 -13.15 -13.15 -13.15 -13.09 -13.14 -13.14 -13.18 -13.14 -13.13 -13.09 -13.13 -13.08 -13.01 -12.88 -12.85 -12.86 -12.86 -12.83 -12.81 -12.79 -12.76 -12.71 -12.74 -12.71 -12.65 -12.52 -12.39 -12.28 -12.16 -12.02 -11.93 -11.84 -11.69 -11.55 -11.43 -11.32 -11.19 -11.07 -11.07 -10.97 -11.03 -11.07 -11.05 -10.99 -10.97 -10.89 -10.78 -10.70 -10.64 -10.57 -10.52 -10.50 -10.53 -10.56 -10.60 -10.62 -10.69 -10.74 -10.82 -10.78 -10.73 -10.74 -10.69 -10.69 -10.65 -10.59 -10.53 -10.45 -10.35 -10.28 -10.21 -10.18 -10.13 -10.12 -10.11 -10.06 -10.02 -9.95 -9.91 -9.84 -9.81 -9.77 -9.72 -9.67 -9.63 -9.63 -9.59 -9.57 -9.54 -9.53 -9.52 -9.50 -9.46 -9.44 -9.43 -9.47 -9.45 -9.42 -9.39 -9.38 -9.43 -9.44 -9.41 -9.38 -9.40 -9.41 -9.43 -9.44 -9.42 -9.43 -9.41 -9.42 -9.43 -9.41 -9.39 -9.37 -9.34 -9.32 -9.29 -9.26 -9.24 -9.30 -9.32 -9.35 -9.30 -9.25 -9.21 -9.17 -9.13 -9.09
-9999.00 -9999.00 -9999.00 -9999.00 -9999.00 -9999.00 -9999.00 -9999.00 -9999.00 -9999.00 -9999.00 -9999.00 -9999.00 -9999.00 -9999.00 -9999.00 -9999.00 -9999.00 -9999.00 -9999.00 -9999.00 -9999.00 -9999.00 -9999.00 -9999.00 -9999.00 -9999.00 -9999.00 -9999.00 -9999.00 -9999.00 -9999.00 -9999.00 -9999.00 -9999.00 -9999.00 -9999.00 -9999.00 -9999.00 -9999.00 -9999.00 -9999.00 -9999.00 -9999.00 -9999.00 -9999.00 -9999.00 -9999.00 -9999.00 -9999.00 -9999.00 -9999.00 -9999.00 -9999.00 -9999.00 -9999.00 -9999.00 -9999.00 -9999.00 -9999.00 -9999.00 -9999.00 -9999.00 -9999.00 -9999.00 -9999.00 -9999.00 -9999.00 -9999.00 -9999.00 -9999.00 -9999.00 -9999.00 -9999.00 -9999.00 -9999.00 -9999.00 -9999.00 -9999.00 -9999.00 -9999.00 -9999.00 -9999.00 -9999.00 -9999.00 -9999.00 -9999.00 -9999.00 -9999.00 -9999.00 -9999.00 -9999.00 -9999.00 -9999.00 -9999.00 -9999.00 -9999.00 -9999.00 -9999.00 -9999.00 -9999.00 -9999.00 -9999.00 -9999.00 -9999.00 -9999.00 -9999.00 -9999.00 -9999.00 -9999.00 -9999.00 -9999.00 -9999.00 -9999.00 -9999.00 -9999.00 -9999.00 -9999.00 -9999.00 -9999.00 -20.72 -20.61 -20.50 -20.39 -20.28 -20.17 -20.09 -20.04 -19.98 -19.93 -19.85 -19.81 -19.77 -19.67 -19.56 -19.40 -19.31 -19.22 -19.07 -19.03 -19.07 -19.04 -19.08 -19.09 -19.12 -19.12 -19.14 -19.16 -19.14 -19.12 -19.09 -19.01 -19.01 -18.92 -18.77 -18.70 -18.56 -18.28 -18.22 -18.12 -18.01 -17.95 -17.90 -17.82 -17.72 -17.60 -17.48 -17.35 -17.22 -17.09 -16.93 -16.76 -16.61 -16.54 -16.46 -16.38 -16.31 -16.23 -16.15 -16.06 -15.94 -15.86 -15.80 -15.71 -15.63 -15.54 -15.46 -15.38 -15.29 -15.21 -15.12 -15.07 -15.01 -14.95 -14.94 -14.88 -14.87 -14.84 -14.81 -14.70 -14.66 -14.59 -14.57 -14.53 -14.47 -14.42 -14.36 -14.33 -14.25 -14.20 -14.19 -14.18 -14.15 -14.10 -14.07 -14.02 -13.95 -13.90 -13.88 -13.86 -13.83 -13.81 -13.83 -13.84 -13.84 -13.80 -13.72 -13.59 -13.43 -13.27 -13.07 -12.88 -12.82 -12.85 -12.88 -12.91 -12.94 -12.97 -13.00 -12.99 -12.97 -12.94 -13.03 -13.04 -13.04 -13.04 -13.04 -13.04 -13.01 -12.97 -13.00 -13.02 -13.06 -13.06 -13.05 -13.00 -13.00 -13.03 -12.94 -12.83 -12.76 -12.73 -12.72 -12.70 -12.68 -12.63 -12.59 -12.56 -12.54 -12.47 -12.37 -12.31 -12.29 -12.18 -12.05 -11.93 -11.84 -11.74 -11.63 -11.51 -11.37 -11.26 -11.16 -11.06 -11.03 -10.93 -10.95 -11.00 -11.04 -11.01 -10.91 -10.84 -10.77 -10.70 -10.66 -10.56 -10.51 -10.46 -10.48 -10.53 -10.50 -10.47 -10.53 -10.56 -10.68 -10.67 -10.65 -10.68 -10.63 -10.62 -10.61 -10.60 -10.49 -10.39 -10.28 -10.22 -10.24 -10.22 -10.19 -10.15 -10.16 -10.11 -10.02 -9.96 -9.94 -9.87 -9.78 -9.76 -9.74 -9.70 -9.65 -9.60 -9.56 -9.53 -9.49 -9.47 -9.43 -9.40 -9.38 -9.42 -9.39 -9.41 -9.42 -9.43 -9.42 -9.42 -9.40 -9.39 -9.40 -9.42 -9.40 -9.39 -9.39 -9.39 -9.41 -9.41 -9.42 -9.40 -9.37 -9.35 -9.33 -9.31 -9.27 -9.28 -9.26 -9.23 -9.22 -9.24 -9.22 -9.22 -9.21 -9.16 -9.10 -9.05 -8.97 -8.91 -8.85
-9999.00 -9999.00 -9999.00 -9999.00 -9999.00 -9999.00 -9999.00 -9999.00 -9999.00 -9999.00 -9999.00 -9999.00 -9999.00 -9999.00 -9999.00 -9999.00 -9999.00 -9999.00 -9999.00 -9999.00 -9999.00 -9999.00 -9999.00 -9999.00 -9999.00 -9999.00 -9999.00 -9999.00 -9999.00 -9999.00 -9999.00 -9999.00 -9999.00 -9999.00 -9999.00 -9999.00 -9999.00 -9999.00 -9999.00 -9999.00 -9999.00 -9999.00 -9999.00 -9999.00 -9999.00 -9999.00 -9999.00 -9999.00 -9999.00 -9999.00 -9999.00 -9999.00 -9999.00 -9999.00 -9999.00 -9999.00 -9999.00 -9999.00 -9999.00 -9999.00 -9999.00 -9999.00 -9999.00 -9999.00 -9999.00 -9999.00 -9999.00 -9999.00 -9999.00 -9999.00 -9999.00 -9999.00 -9999.00 -9999.00 -9999.00 -9999.00 -9999.00 -9999.00 -9999.00 -9999.00 -9999.00 -9999.00 -9999.00 -9999.00 -9999.00 -9999.00 -9999.00 -9999.00 -9999.00 -9999.00 -9999.00 -9999.00 -9999.00 -9999.00 -9999.00 -9999.00 -9999.00 -9999.00 -9999.00 -9999.00 -9999.00 -9999.00 -9999.00 -9999.00 -9999.00 -9999.00 -9999.00 -9999.00 -9999.00 -9999.00 -9999.00 -9999.00 -9999.00 -9999.00 -9999.00 -9999.00 -9999.00 -9999.00 -9999.00 -20.76 -20.62 -20.52 -20.41 -20.30 -20.20 -20.11 -20.05 -20.00 -19.92 -19.85 -19.81 -19.75 -19.71 -19.66 -19.52 -19.44 -19.35 -19.23 -19.12 -19.04 -19.04 -19.05 -19.07 -19.05 -19.10 -19.11 -19.12 -19.10 -19.09 -19.04 -18.97 -18.98 -18.94 -18.90 -18.78 -18.64 -18.39 -18.27 -18.14 -18.01 -17.95 -17.85 -17.75 -17.63 -17.49 -17.38 -17.24 -17.11 -16.98 -16.83 -16.66 -16.53 -16.40 -16.31 -16.25 -16.18 -16.08 -16.00 -15.93 -15.80 -15.73 -15.68 -15.61 -15.53 -15.44 -15.36 -15.27 -15.19 -15.11 -15.06 -14.96 -14.92 -14.89 -14.85 -14.81 -14.76 -14.74 -14.69 -14.63 -14.59 -14.57 -14.54 -14.48 -14.43 -14.38 -14.34 -14.27 -14.23 -14.17 -14.17 -14.16 -14.12 -14.11 -14.07 -13.98 -13.93 -13.90 -13.85 -13.83 -13.79 -13.79 -13.80 -13.78 -13.75 -13.72 -13.69 -13.68 -13.52 -13.34 -13.17 -12.98 -12.76 -12.66 -12.75 -12.80 -12.83 -12.86 -12.89 -12.91 -12.90 -12.84 -12.81 -12.91 -12.89 -12.90 -12.91 -12.92 -12.90 -12.91 -12.92 -12.93 -12.94 -12.94 -12.88 -12.84 -12.77 -12.77 -12.76 -12.68 -12.64 -12.58 -12.54 -12.49 -12.47 -12.45 -12.41 -12.36 -12.32 -12.24 -12.21 -12.16 -12.09 -12.03 -11.97 -11.87 -11.78 -11.67 -11.54 -11.42 -11.31 -11.21 -11.16 -11.04 -11.02 -10.96 -10.91 -10.88 -10.92 -10.91 -10.82 -10.83 -10.75 -10.72 -10.62 -10.53 -10.47 -10.35 -10.40 -10.41 -10.43 -10.41 -10.43 -10.43 -10.47 -10.57 -10.57 -10.58 -10.54 -10.53 -10.50 -10.51 -10.50 -10.40 -10.23 -10.07 -10.10 -10.06 -10.04 -10.03 -10.00 -10.05 -10.06 -9.98 -9.88 -9.84 -9.80 -9.82 -9.78 -9.74 -9.70 -9.66 -9.59 -9.52 -9.46 -9.41 -9.42 -9.40 -9.34 -9.32 -9.39 -9.42 -9.43 -9.46 -9.47 -9.47 -9.48 -9.48 -9.43 -9.41 -9.41 -9.40 -9.40 -9.39 -9.38 -9.37 -9.35 -9.33 -9.31 -9.30 -9.28 -9.24 -9.20 -9.18 -9.17 -9.16 -9.15 -9.14 -9.13 -9.08 -9.06 -8.99 -8.95 -8.94 -8.91 -8.81 -8.71 -8.63
-9999.00 -9999.00 -9999.00 -9999.00 -9999.00 -9999.00 -9999.00 -9999.00 -9999.00 -9999.00 -9999.00 -9999.00 -9999.00 -9999.00 -9999.00 -9999.00 -9999.00 -9999.00 -9999.00 -9999.00 -9999.00 -9999.00 -9999.00 -9999.00 -9999.00 -9999.00 -9999.00 -9999.00 -9999.00 -9999.00 -9999.00 -9999.00 -9999.00 -9999.00 -9999.00 -9999.00 -9999.00 -9999.00 -9999.00 -9999.00 -9999.00 -9999.00 -9999.00 -9999.00 -9999.00 -9999.00 -9999.00 -9999.00 -9999.00 -9999.00 -9999.00 -9999.00 -9999.00 -9999.00 -9999.00 -9999.00 -9999.00 -9999.00 -9999.00 -9999.00 -9999.00 -9999.00 -9999.00 -9999.00 -9999.00 -9999.00 -9999.00 -9999.00 -9999.00 -9999.00 -9999.00 -9999.00 -9999.00 -9999.00 -9999.00 -9999.00 -9999.00 -9999.00 -9999.00 -9999.00 -9999.00 -9999.00 -9999.00 -9999.00 -9999.00 -9999.00 -9999.00 -9999.00 -9999.00 -9999.00 -9999.00 -9999.00 -9999.00 -9999.00 -9999.00 -9999.00 -9999.00 -9999.00 -9999.00 -9999.00 -9999.00 -9999.00 -9999.00 -9999.00 -9999.00 -9999.00 -9999.00 -9999.00 -9999.00 -9999.00 -9999.00 -9999.00 -9999.00 -9999.00 -9999.00 -9999.00 -9999.00 -9999.00 -20.72 -20.68 -20.53 -20.42 -20.32 -20.21 -20.12 -20.07 -19.99 -19.93 -19.85 -19.79 -19.75 -19.66 -19.65 -19.63 -19.57 -19.47 -19.38 -19.26 -19.17 -19.06 -19.00 -19.01 -19.05 -19.06 -19.09 -19.08 -19.06 -19.06 -18.98 -18.94 -18.92 -18.87 -18.82 -18.79 -18.70 -18.51 -18.35 -18.16 -18.02 -17.94 -17.82 -17.65 -17.51 -17.40 -17.27 -17.13 -17.00 -16.87 -16.73 -16.56 -16.44 -16.33 -16.21 -16.11 -16.02 -15.94 -15.87 -15.80 -15.69 -15.62 -15.55 -15.48 -15.43 -15.34 -15.26 -15.17 -15.10 -15.03 -14.97 -14.92 -14.85 -14.82 -14.75 -14.70 -14.67 -14.64 -14.58 -14.55 -14.54 -14.53 -14.48 -14.44 -14.39 -14.34 -14.30 -14.27 -14.19 -14.19 -14.17 -14.12 -14.15 -14.12 -14.04 -13.99 -13.92 -13.89 -13.84 -13.78 -13.75 -13.76 -13.72 -13.70 -13.68 -13.66 -13.66 -13.63 -13.57 -13.49 -13.33 -13.14 -13.03 -12.96 -12.93 -12.84 -12.71 -12.75 -12.78 -12.81 -12.82 -12.78 -12.75 -12.69 -12.77 -12.78 -12.79 -12.83 -12.84 -12.84 -12.82 -12.84 -12.84 -12.78 -12.76 -12.72 -12.68 -12.65 -12.53 -12.51 -12.46 -12.39 -12.34 -12.32 -12.28 -12.26 -12.22 -12.17 -12.13 -12.08 -12.02 -11.97 -11.92 -11.87 -11.84 -11.79 -11.73 -11.59 -11.50 -11.37 -11.27 -11.14 -11.03 -11.01 -11.01 -10.96 -10.90 -10.84 -10.77 -10.81 -10.81 -10.78 -10.74 -10.71 -10.65 -10.52 -10.47 -10.41 -10.37 -10.33 -10.37 -10.34 -10.35 -10.34 -10.36 -10.35 -10.40 -10.41 -10.42 -10.46 -10.41 -10.42 -10.35 -10.31 -10.16 -10.05 -9.90 -9.91 -9.84 -9.81 -9.88 -9.94 -9.98 -9.98 -9.93 -9.88 -9.83 -9.83 -9.78 -9.75 -9.70 -9.67 -9.55 -9.52 -9.53 -9.53 -9.49 -9.44 -9.38 -9.34 -9.31 -9.37 -9.40 -9.42 -9.41 -9.44 -9.46 -9.46 -9.46 -9.44 -9.40 -9.38 -9.35 -9.32 -9.30 -9.28 -9.25 -9.26 -9.22 -9.18 -9.16 -9.11 -9.07 -9.03 -8.99 -8.97 -8.96 -8.95 -8.94 -8.93 -8.91 -8.88 -8.83 -8.77 -8.70 -8.65 -8.54 -8.45 -8.35
-9999.00 -9999.00 -9999.00 -9999.00 -9999.00 -9999.00 -9999.00 -9999.00 -9999.00 -9999.00 -9999.00 -9999.00 -9999.00 -9999.00 -9999.00 -9999.00 -9999.00 -9999.00 -9999.00 -9999.00 -9999.00 -9999.00 -9999.00 -9999.00 -9999.00 -9999.00 -9999.00 -9999.00 -9999.00 -9999.00 -9999.00 -9999.00 -9999.00 -9999.00 -9999.00 -9999.00 -9999.00 -9999.00 -9999.00 -9999.00 -9999.00 -9999.00 -9999.00 -9999.00 -9999.00 -9999.00 -9999.00 -9999.00 -9999.00 -9999.00 -9999.00 -9999.00 -9999.00 -9999.00 -9999.00 -9999.00 -9999.00 -9999.00 -9999.00 -9999.00 -9999.00 -9999.00 -9999.00 -9999.00 -9999.00 -9999.00 -9999.00 -9999.00 -9999.00 -9999.00 -9999.00 -9999.00 -9999.00 -9999.00 -9999.00 -9999.00 -9999.00 -9999.00 -9999.00 -9999.00 -9999.00 -9999.00 -9999.00 -9999.00 -9999.00 -9999.00 -9999.00 -9999.00 -9999.00 -9999.00 -9999.00 -9999.00 -9999.00 -9999.00 -9999.00 -9999.00 -9999.00 -9999.00 -9999.00 -9999.00 -9999.00 -9999.00 -9999.00 -9999.00 -9999.00 -9999.00 -9999.00 -9999.00 -9999.00 -9999.00 -9999.00 -9999.00 -9999.00 -9999.00 -9999.00 -9999.00 -9999.00 -20.61 -20.56 -20.54 -20.47 -20.34 -20.23 -20.14 -20.06 -20.00 -19.90 -19.83 -19.76 -19.67 -19.67 -19.58 -19.55 -19.57 -19.59 -19.53 -19.40 -19.30 -19.21 -19.12 -19.02 -19.02 -19.03 -19.05 -19.05 -19.02 -18.99 -18.94 -18.89 -18.87 -18.78 -18.74 -18.69 -18.60 -18.52 -18.40 -18.18 -18.02 -17.89 -17.71 -17.55 -17.38 -17.26 -17.13 -17.03 -16.89 -16.76 -16.63 -16.47 -16.36 -16.23 -16.13 -16.01 -15.92 -15.82 -15.74 -15.65 -15.57 -15.52 -15.44 -15.37 -15.31 -15.25 -15.15 -15.10 -15.03 -14.97 -14.89 -14.85 -14.80 -14.74 -14.68 -14.60 -14.55 -14.54 -14.51 -14.51 -14.50 -14.49 -14.44 -14.40 -14.36 -14.33 -14.30 -14.21 -14.21 -14.21 -14.16 -14.15 -14.13 -14.09 -14.04 -13.94 -13.93 -13.88 -13.82 -13.76 -13.71 -13.68 -13.66 -13.65 -13.64 -13.64 -13.63 -13.58 -13.53 -13.51 -13.47 -13.38 -13.23 -13.14 -13.11 -13.05 -12.98 -12.92 -12.85 -12.75 -12.72 -12.73 -12.67 -12.64 -12.60 -12.59 -12.67 -12.69 -12.70 -12.71 -12.72 -12.73 -12.70 -12.68 -12.64 -12.60 -12.55 -12.49 -12.40 -12.32 -12.26 -12.21 -12.23 -12.14 -12.13 -12.12 -12.06 -11.98 -11.98 -11.91 -11.85 -11.82 -11.78 -11.73 -11.69 -11.65 -11.62 -11.57 -11.41 -11.33 -11.22 -11.11 -11.00 -10.94 -10.90 -10.97 -10.91 -10.87 -10.79 -10.75 -10.70 -10.72 -10.69 -10.64 -10.66 -10.58 -10.51 -10.42 -10.31 -10.32 -10.31 -10.28 -10.24 -10.24 -10.20 -10.18 -10.25 -10.28 -10.29 -10.31 -10.34 -10.30 -10.26 -10.18 -10.16 -10.11 -9.96 -9.84 -9.74 -9.73 -9.69 -9.74 -9.84 -9.92 -9.84 -9.78 -9.76 -9.75 -9.72 -9.73 -9.70 -9.66 -9.54 -9.48 -9.50 -9.46 -9.43 -9.41 -9.39 -9.37 -9.35 -9.34 -9.33 -9.35 -9.40 -9.36 -9.36 -9.36 -9.38 -9.35 -9.33 -9.27 -9.25 -9.21 -9.18 -9.17 -9.15 -9.13 -9.11 -9.07 -9.03 -8.99 -8.94 -8.87 -8.82 -8.79 -8.78 -8.78 -8.77 -8.77 -8.78 -8.77 -8.71 -8.65 -8.59 -8.52 -8.43 -8.37 -8.28 -8.17
-9999.00 -9999.00 -9999.00 -9999.00 -9999.00 -9999.00 -9999.00 -9999.00 -9999.00 -9999.00 -9999.00 -9999.00 -9999.00 -9999.00 -9999.00 -9999.00 -9999.00 -9999.00 -9999.00 -9999.00 -9999.00 -9999.00 -9999.00 -9999.00 -9999.00 -9999.00 -9999.00 -9999.00 -9999.00 -9999.00 -9999.00 -9999.00 -9999.00 -9999.00 -9999.00 -9999.00 -9999.00 -9999.00 -9999.00 -9999.00 -9999.00 -9999.00 -9999.00 -9999.00 -9999.00 -9999.00 -9999.00 -9999.00 -9999.00 -9999.00 -9999.00 -9999.00 -9999.00 -9999.00 -9999.00 -9999.00 -9999.00 -9999.00 -9999.00 -9999.00 -9999.00 -9999.00 -9999.00 -9999.00 -9999.00 -9999.00 -9999.00 -9999.00 -9999.00 -9999.00 -9999.00 -9999.00 -9999.00 -9999.00 -9999.00 -9999.00 -9999.00 -9999.00 -9999.00 -9999.00 -9999.00 -9999.00 -9999.00 -9999.00 -9999.00 -9999.00 -9999.00 -9999.00 -9999.00 -9999.00 -9999.00 -9999.00 -9999.00 -9999.00 -9999.00 -9999.00 -9999.00 -9999.00 -9999.00 -9999.00 -9999.00 -9999.00 -9999.00 -9999.00 -9999.00 -9999.00 -9999.00 -9999.00 -9999.00 -9999.00 -9999.00 -9999.00 -9999.00 -9999.00 -9999.00 -20.55 -20.49 -20.45 -20.41 -20.36 -20.28 -20.22 -20.14 -20.08 -19.97 -19.87 -19.79 -19.73 -19.63 -19.59 -19.56 -19.48 -19.46 -19.46 -19.47 -19.47 -19.44 -19.33 -19.23 -19.15 -19.04 -18.99 -19.01 -19.01 -19.02 -18.96 -18.89 -18.84 -18.79 -18.69 -18.65 -18.58 -18.46 -18.36 -18.28 -18.15 -17.97 -17.78 -17.60 -17.42 -17.25 -17.11 -16.99 -16.85 -16.75 -16.65 -16.52 -16.38 -16.26 -16.14 -16.03 -15.92 -15.84 -15.71 -15.64 -15.55 -15.46 -15.40 -15.33 -15.29 -15.24 -15.15 -15.10 -15.03 -14.96 -14.89 -14.84 -14.80 -14.74 -14.67 -14.62 -14.56 -14.52 -14.48 -14.45 -14.48 -14.49 -14.44 -14.42 -14.39 -14.37 -14.31 -14.26 -14.24 -14.24 -14.20 -14.15 -14.16 -14.12 -14.07 -13.97 -13.94 -13.87 -13.86 -13.79 -13.73 -13.68 -13.63 -13.63 -13.62 -13.62 -13.62 -13.58 -13.52 -13.49 -13.44 -13.44 -13.44 -13.39 -13.29 -13.21 -13.12 -13.10 -13.05 -12.99 -12.92 -12.82 -12.80 -12.67 -12.64 -12.60 -12.58 -12.59 -12.65 -12.67 -12.66 -12.65 -12.63 -12.58 -12.56 -12.50 -12.47 -12.40 -12.32 -12.25 -12.18 -12.09 -12.03 -12.03 -12.04 -12.02 -12.00 -11.90 -11.85 -11.80 -11.75 -11.71 -11.66 -11.64 -11.60 -11.55 -11.52 -11.47 -11.44 -11.35 -11.28 -11.17 -11.07 -11.00 -10.92 -10.82 -10.73 -10.81 -10.86 -10.82 -10.75 -10.70 -10.66 -10.63 -10.62 -10.56 -10.52 -10.47 -10.38 -10.34 -10.32 -10.31 -10.25 -10.17 -10.10 -10.10 -10.05 -10.03 -10.06 -10.16 -10.21 -10.23 -10.22 -10.21 -10.19 -10.11 -10.11 -10.03 -9.87 -9.67 -9.53 -9.64 -9.70 -9.70 -9.76 -9.78 -9.74 -9.73 -9.70 -9.67 -9.69 -9.64 -9.60 -9.57 -9.54 -9.47 -9.44 -9.42 -9.39 -9.37 -9.36 -9.35 -9.32 -9.30 -9.31 -9.29 -9.27 -9.25 -9.21 -9.18 -9.16 -9.12 -9.17 -9.16 -9.08 -9.01 -8.96 -8.93 -8.93 -8.90 -8.86 -8.83 -8.81 -8.77 -8.75 -8.69 -8.65 -8.62 -8.60 -8.57 -8.56 -8.56 -8.56 -8.51 -8.44 -8.40 -8.37 -8.34 -8.33 -8.33 -8.26 -8.16
-9999.00 -9999.00 -9999.00 -9999.00 -9999.00 -9999.00 -9999.00 -9999.00 -9999.00 -9999.00 -9999.00 -9999.00 -9999.00 -9999.00 -9999.00 -9999.00 -9999.00 -9999.00 -9999.00 -9999.00 -9999.00 -9999.00 -9999.00 -9999.00 -9999.00 -9999.00 -9999.00 -9999.00 -9999.00 -9999.00 -9999.00 -9999.00 -9999.00 -9999.00 -9999.00 -9999.00 -9999.00 -9999.00 -9999.00 -9999.00 -9999.00 -9999.00 -9999.00 -9999.00 -9999.00 -9999.00 -9999.00 -9999.00 -9999.00 -9999.00 -9999.00 -9999.00 -9999.00 -9999.00 -9999.00 -9999.00 -9999.00 -9999.00 -9999.00 -9999.00 -9999.00 -9999.00 -9999.00 -9999.00 -9999.00 -9999.00 -9999.00 -9999.00 -9999.00 -9999.00 -9999.00 -9999.00 -9999.00 -9999.00 -9999.00 -9999.00 -9999.00 -9999.00 -9999.00 -9999.00 -9999.00 -9999.00 -9999.00 -9999.00 -9999.00 -9999.00 -9999.00 -9999.00 -9999.00 -9999.00 -9999.00 -9999.00 -9999.00 -9999.00 -9999.00 -9999.00 -9999.00 -9999.00 -9999.00 -9999.00 -9999.00 -9999.00 -9999.00 -9999.00 -9999.00 -9999.00 -9999.00 -9999.00 -9999.00 -9999.00 -9999.00 -9999.00 -9999.00 -9999.00 -20.60 -20.41 -20.34 -20.30 -20.25 -20.19 -20.12 -20.08 -20.05 -19.92 -19.84 -19.75 -19.64 -19.61 -19.53 -19.45 -19.40 -19.35 -19.33 -19.34 -19.34 -19.35 -19.37 -19.34 -19.23 -19.13 -19.07 -19.00 -18.96 -18.95 -18.90 -18.83 -18.78 -18.70 -18.60 -18.55 -18.44 -18.30 -18.20 -18.10 -17.97 -17.82 -17.66 -17.46 -17.29 -17.12 -16.95 -16.86 -16.71 -16.55 -16.48 -16.39 -16.29 -16.16 -16.06 -15.93 -15.83 -15.74 -15.63 -15.54 -15.47 -15.38 -15.31 -15.26 -15.24 -15.17 -15.11 -15.03 -14.95 -14.89 -14.82 -14.78 -14.73 -14.67 -14.62 -14.58 -14.53 -14.49 -14.45 -14.46 -14.47 -14.44 -14.44 -14.41 -14.39 -14.34 -14.31 -14.24 -14.27 -14.24 -14.19 -14.18 -14.15 -14.11 -14.04 -13.98 -13.91 -13.85 -13.84 -13.77 -13.70 -13.65 -13.60 -13.58 -13.61 -13.56 -13.58 -13.51 -13.47 -13.45 -13.43 -13.42 -13.43 -13.43 -13.36 -13.28 -13.19 -13.13 -13.11 -13.04 -12.98 -12.89 -12.82 -12.71 -12.64 -12.61 -12.58 -12.59 -12.55 -12.57 -12.59 -12.54 -12.49 -12.46 -12.43 -12.39 -12.35 -12.22 -12.17 -12.10 -12.02 -11.94 -11.91 -11.91 -11.88 -11.86 -11.83 -11.75 -11.69 -11.64 -11.60 -11.58 -11.54 -11.53 -11.49 -11.47 -11.41 -11.35 -11.30 -11.24 -11.20 -11.16 -11.05 -10.95 -10.85 -10.76 -10.61 -10.60 -10.70 -10.79 -10.72 -10.68 -10.61 -10.59 -10.50 -10.47 -10.42 -10.38 -10.36 -10.45 -10.37 -10.32 -10.22 -10.20 -10.11 -10.01 -9.76 -9.83 -9.92 -10.03 -10.10 -10.11 -10.19 -10.22 -10.16 -10.09 -10.05 -9.98 -9.92 -9.81 -9.71 -9.65 -9.68 -9.76 -9.81 -9.72 -9.68 -9.66 -9.64 -9.60 -9.57 -9.54 -9.52 -9.52 -9.51 -9.45 -9.45 -9.38 -9.35 -9.30 -9.28 -9.22 -9.23 -9.21 -9.19 -9.16 -9.17 -9.18 -9.17 -9.15 -9.11 -9.03 -8.91 -8.85 -8.83 -8.80 -8.76 -8.73 -8.72 -8.67 -8.63 -8.58 -8.56 -8.52 -8.49 -8.46 -8.47 -8.48 -8.48 -8.44 -8.41 -8.38 -8.35 -8.32 -8.27 -8.22 -8.23 -8.25 -8.24 -8.24 -8.23 -8.20 -8.14
-9999.00 -9999.00 -9999.00 -9999.00 -9999.00 -9999.00 -9999.00 -9999.00 -9999.00 -9999.00 -9999.00 -9999.00 -9999.00 -9999.00 -9999.00 -9999.00 -9999.00 -9999.00 -9999.00 -9999.00 -9999.00 -9999.00 -9999.00 -9999.00 -9999.00 -9999.00 -9999.00 -9999.00 -9999.00 -9999.00 -9999.00 -9999.00 -9999.00 -9999.00 -9999.00 -9999.00 -9999.00 -9999.00 -9999.00 -9999.00 -9999.00 -9999.00 -9999.00 -9999.00 -9999.00 -9999.00 -9999.00 -9999.00 -9999.00 -9999.00 -9999.00 -9999.00 -9999.00 -9999.00 -9999.00 -9999.00 -9999.00 -9999.00 -9999.00 -9999.00 -9999.00 -9999.00 -9999.00 -9999.00 -9999.00 -9999.00 -9999.00 -9999.00 -9999.00 -9999.00 -9999.00 -9999.00 -9999.00 -9999.00 -9999.00 -9999.00 -9999.00 -9999.00 -9999.00 -9999.00 -9999.00 -9999.00 -9999.00 -9999.00 -9999.00 -9999.00 -9999.00 -9999.00 -9999.00 -9999.00 -9999.00 -9999.00 -9999.00 -9999.00 -9999.00 -9999.00 -9999.00 -9999.00 -9999.00 -9999.00 -9999.00 -9999.00 -9999.00 -9999.00 -9999.00 -9999.00 -9999.00 -9999.00 -9999.00 -9999.00 -9999.00 -9999.00 -9999.00 -20.65 -20.48 -20.36 -20.23 -20.14 -20.10 -20.02 -20.00 -19.94 -19.85 -19.77 -19.68 -19.60 -19.54 -19.48 -19.34 -19.31 -19.24 -19.20 -19.21 -19.21 -19.22 -19.23 -19.25 -19.25 -19.20 -19.11 -19.04 -19.00 -18.93 -18.86 -18.77 -18.73 -18.62 -18.52 -18.43 -18.28 -18.16 -18.05 -17.92 -17.79 -17.65 -17.48 -17.30 -17.12 -16.99 -16.81 -16.73 -16.57 -16.44 -16.35 -16.24 -16.13 -16.06 -15.96 -15.83 -15.74 -15.64 -15.55 -15.46 -15.39 -15.30 -15.22 -15.21 -15.17 -15.12 -15.04 -14.96 -14.91 -14.83 -14.77 -14.72 -14.66 -14.63 -14.59 -14.54 -14.51 -14.46 -14.46 -14.43 -14.44 -14.43 -14.42 -14.40 -14.38 -14.32 -14.25 -14.26 -14.25 -14.23 -14.17 -14.16 -14.16 -14.10 -14.05 -13.97 -13.87 -13.86 -13.77 -13.75 -13.69 -13.62 -13.57 -13.55 -13.57 -13.51 -13.46 -13.46 -13.44 -13.42 -13.39 -13.40 -13.41 -13.42 -13.40 -13.33 -13.25 -13.19 -13.13 -13.07 -13.01 -12.94 -12.86 -12.77 -12.68 -12.60 -12.58 -12.52 -12.49 -12.48 -12.42 -12.43 -12.40 -12.35 -12.30 -12.27 -12.20 -12.13 -12.04 -11.91 -11.90 -11.82 -11.79 -11.74 -11.69 -11.67 -11.65 -11.61 -11.56 -11.51 -11.50 -11.47 -11.45 -11.42 -11.41 -11.36 -11.33 -11.27 -11.23 -11.19 -11.15 -11.12 -11.06 -10.92 -10.86 -10.79 -10.75 -10.69 -10.66 -10.64 -10.66 -10.63 -10.57 -10.50 -10.47 -10.44 -10.38 -10.35 -10.37 -10.34 -10.39 -10.35 -10.26 -10.19 -10.12 -10.02 -9.93 -9.74 -9.68 -9.78 -9.89 -9.98 -10.03 -10.05 -10.05 -9.98 -9.95 -9.91 -9.84 -9.75 -9.69 -9.64 -9.60 -9.66 -9.71 -9.76 -9.66 -9.57 -9.58 -9.59 -9.59 -9.55 -9.52 -9.50 -9.48 -9.43 -9.40 -9.35 -9.33 -9.29 -9.26 -9.23 -9.21 -9.19 -9.18 -9.16 -9.13 -9.08 -9.03 -8.96 -8.88 -8.80 -8.71 -8.61 -8.57 -8.48 -8.50 -8.52 -8.52 -8.48 -8.44 -8.42 -8.41 -8.37 -8.31 -8.24 -8.20 -8.22 -8.24 -8.24 -8.20 -8.18 -8.15 -8.12 -8.11 -8.13 -8.13 -8.11 -8.12 -8.12 -8.12 -8.12 -8.15 -8.11
-9999.00 -9999.00 -9999.00 -9999.00 -9999.00 -9999.00 -9999.00 -9999.00 -9999.00 -9999.00 -9999.00 -9999.00 -9999.00 -9999.00 -9999.00 -9999.00 -9999.00 -9999.00 -9999.00 -9999.00 -9999.00 -9999.00 -9999.00 -9999.00 -9999.00 -9999.00 -9999.00 -9999.00 -9999.00 -9999.00 -9999.00 -9999.00 -9999.00 -9999.00 -9999.00 -9999.00 -9999.00 -9999.00 -9999.00 -9999.00 -9999.00 -9999.00 -9999.00 -9999.00 -9999.00 -9999.00 -9999.00 -9999.00 -9999.00 -9999.00 -9999.00 -9999.00 -9999.00 -9999.00 -9999.00 -9999.00 -9999.00 -9999.00 -9999.00 -9999.00 -9999.00 -9999.00 -9999.00 -9999.00 -9999.00 -9999.00 -9999.00 -9999.00 -9999.00 -9999.00 -9999.00 -9999.00 -9999.00 -9999.00 -9999.00 -9999.00 -9999.00 -9999.00 -9999.00 -9999.00 -9999.00 -9999.00 -9999.00 -9999.00 -9999.00 -9999.00 -9999.00 -9999.00 -9999.00 -9999.00 -9999.00 -9999.00 -9999.00 -9999.00 -9999.00 -9999.00 -9999.00 -9999.00 -9999.00 -9999.00 -9999.00 -9999.00 -9999.00 -9999.00 -9999.00 -9999.00 -9999.00 -9999.00 -9999.00 -9999.00 -9999.00 -9999.00 -20.70 -20.55 -20.44 -20.30 -20.17 -20.03 -19.94 -19.93 -19.86 -19.79 -19.70 -19.62 -19.55 -19.47 -19.37 -19.23 -19.23 -19.14 -19.08 -19.08 -19.08 -19.10 -19.11 -19.11 -19.11 -19.12 -19.14 -19.05 -18.97 -18.90 -18.82 -18.71 -18.63 -18.51 -18.42 -18.28 -18.12 -18.00 -17.88 -17.73 -17.61 -17.47 -17.29 -17.11 -16.95 -16.79 -16.63 -16.61 -16.44 -16.31 -16.21 -16.12 -16.00 -15.91 -15.84 -15.74 -15.64 -15.54 -15.46 -15.37 -15.31 -15.22 -15.16 -15.13 -15.09 -15.05 -14.98 -14.91 -14.85 -14.80 -14.74 -14.69 -14.64 -14.59 -14.55 -14.51 -14.48 -14.46 -14.43 -14.42 -14.40 -14.39 -14.39 -14.41 -14.36 -14.30 -14.26 -14.24 -14.20 -14.17 -14.16 -14.19 -14.17 -14.10 -14.02 -13.91 -13.85 -13.77 -13.72 -13.69 -13.65 -13.59 -13.52 -13.54 -13.51 -13.47 -13.43 -13.44 -13.40 -13.37 -13.38 -13.39 -13.40 -13.41 -13.42 -13.36 -13.29 -13.23 -13.16 -13.11 -13.05 -13.00 -12.91 -12.82 -12.74 -12.65 -12.55 -12.53 -12.48 -12.45 -12.41 -12.29 -12.24 -12.20 -12.18 -12.11 -12.08 -11.98 -11.89 -11.85 -11.79 -11.69 -11.67 -11.62 -11.61 -11.56 -11.53 -11.50 -11.47 -11.45 -11.41 -11.38 -11.35 -11.36 -11.35 -11.32 -11.29 -11.23 -11.18 -11.12 -11.05 -11.00 -10.96 -10.90 -10.80 -10.75 -10.72 -10.68 -10.64 -10.62 -10.61 -10.57 -10.56 -10.52 -10.47 -10.45 -10.38 -10.32 -10.26 -10.28 -10.29 -10.29 -10.23 -10.17 -10.14 -10.11 -10.02 -9.83 -9.65 -9.48 -9.74 -9.79 -9.83 -9.89 -9.95 -9.98 -9.92 -9.87 -9.81 -9.76 -9.71 -9.66 -9.65 -9.60 -9.60 -9.63 -9.62 -9.59 -9.53 -9.46 -9.45 -9.45 -9.46 -9.47 -9.45 -9.43 -9.44 -9.35 -9.25 -9.20 -9.21 -9.21 -9.22 -9.23 -9.22 -9.22 -9.22 -9.11 -8.98 -8.85 -8.72 -8.62 -8.52 -8.41 -8.30 -8.20 -8.20 -8.19 -8.21 -8.25 -8.21 -8.21 -8.19 -8.17 -8.12 -8.06 -8.00 -7.96 -7.95 -7.95 -7.93 -7.90 -7.88 -7.86 -7.83 -7.84 -7.85 -7.86 -7.89 -7.93 -7.98 -8.03 -8.05 -8.06 -8.00
-9999.00 -9999.00 -9999.00 -9999.00 -9999.00 -9999.00 -9999.00 -9999.00 -9999.00 -9999.00 -9999.00 -9999.00 -9999.00 -9999.00 -9999.00 -9999.00 -9999.00 -9999.00 -9999.00 -9999.00 -9999.00 -9999.00 -9999.00 -9999.00 -9999.00 -9999.00 -9999.00 -9999.00 -9999.00 -9999.00 -9999.00 -9999.00 -9999.00 -9999.00 -9999.00 -9999.00 -9999.00 -9999.00 -9999.00 -9999.00 -9999.00 -9999.00 -9999.00 -9999.00 -9999.00 -9999.00 -9999.00 -9999.00 -9999.00 -9999.00 -9999.00 -9999.00 -9999.00 -9999.00 -9999.00 -9999.00 -9999.00 -9999.00 -9999.00 -9999.00 -9999.00 -9999.00 -9999.00 -9999.00 -9999.00 -9999.00 -9999.00 -9999.00 -9999.00 -9999.00 -9999.00 -9999.00 -9999.00 -9999.00 -9999.00 -9999.00 -9999.00 -9999.00 -9999.00 -9999.00 -9999.00 -9999.00 -9999.00 -9999.00 -9999.00 -9999.00 -9999.00 -9999.00 -9999.00 -9999.00 -9999.00 -9999.00 -9999.00 -9999.00 -9999.00 -9999.00 -9999.00 -9999.00 -9999.00 -9999.00 -9999.00 -9999.00 -9999.00 -9999.00 -9999.00 -9999.00 -9999.00 -9999.00 -9999.00 -9999.00 -9999.00 -20.76 -20.62 -20.51 -20.38 -20.24 -20.11 -19.97 -19.84 -19.78 -19.72 -19.63 -19.55 -19.48 -19.41 -19.26 -19.14 -19.14 -19.04 -18.96 -18.94 -18.95 -18.96 -18.97 -18.97 -18.99 -19.01 -18.99 -18.96 -18.97 -18.87 -18.75 -18.66 -18.52 -18.39 -18.28 -18.13 -17.97 -17.83 -17.72 -17.55 -17.43 -17.28 -17.12 -16.94 -16.77 -16.65 -16.54 -16.45 -16.32 -16.18 -16.08 -16.00 -15.88 -15.80 -15.70 -15.61 -15.54 -15.44 -15.37 -15.28 -15.22 -15.14 -15.08 -15.04 -15.00 -14.96 -14.93 -14.88 -14.83 -14.77 -14.73 -14.67 -14.58 -14.57 -14.51 -14.50 -14.45 -14.43 -14.40 -14.39 -14.36 -14.35 -14.34 -14.35 -14.31 -14.27 -14.23 -14.18 -14.15 -14.12 -14.11 -14.13 -14.13 -14.08 -13.97 -13.86 -13.79 -13.69 -13.65 -13.62 -13.60 -13.56 -13.50 -13.50 -13.47 -13.44 -13.41 -13.38 -13.35 -13.33 -13.31 -13.37 -13.38 -13.39 -13.40 -13.40 -13.33 -13.27 -13.21 -13.13 -13.09 -13.06 -13.00 -12.91 -12.84 -12.73 -12.64 -12.53 -12.51 -12.47 -12.33 -12.26 -12.14 -12.03 -12.06 -11.98 -11.91 -11.87 -11.80 -11.75 -11.69 -11.62 -11.56 -11.52 -11.47 -11.43 -11.39 -11.34 -11.37 -11.36 -11.33 -11.32 -11.34 -11.35 -11.32 -11.29 -11.27 -11.20 -11.14 -11.06 -10.99 -10.96 -10.90 -10.84 -10.83 -10.74 -10.68 -10.64 -10.61 -10.59 -10.54 -10.49 -10.52 -10.51 -10.48 -10.42 -10.37 -10.36 -10.29 -10.27 -10.25 -10.24 -10.19 -10.10 -10.07 -10.03 -10.03 -9.96 -9.82 -9.76 -9.64 -9.65 -9.73 -9.81 -9.83 -9.84 -9.83 -9.81 -9.75 -9.71 -9.67 -9.64 -9.60 -9.59 -9.57 -9.64 -9.60 -9.54 -9.46 -9.34 -9.27 -9.31 -9.35 -9.38 -9.41 -9.41 -9.35 -9.29 -9.21 -9.16 -9.14 -9.15 -9.17 -9.19 -9.18 -9.19 -9.15 -9.14 -9.00 -8.84 -8.67 -8.50 -8.36 -8.29 -8.17 -8.05 -7.96 -7.93 -7.95 -7.95 -7.94 -7.94 -7.95 -7.95 -7.95 -7.92 -7.89 -7.86 -7.80 -7.72 -7.65 -7.62 -7.63 -7.63 -7.62 -7.62 -7.61 -7.61 -7.59 -7.59 -7.68 -7.75 -7.88 -7.94 -7.97 -7.89
-9999.00 -9999.00 -9999.00 -9999.00 -9999.00 -9999.00 -9999.00 -9999.00 -9999.00 -9999.00 -9999.00 -9999.00 -9999.00 -9999.00 -9999.00 -9999.00 -9999.00 -9999.00 -9999.00 -9999.00 -9999.00 -9999.00 -9999.00 -9999.00 -9999.00 -9999.00 -9999.00 -9999.00 -9999.00 -9999.00 -9999.00 -9999.00 -9999.00 -9999.00 -9999.00 -9999.00 -9999.00 -9999.00 -9999.00 -9999.00 -9999.00 -9999.00 -9999.00 -9999.00 -9999.00 -9999.00 -9999.00 -9999.00 -9999.00 -9999.00 -9999.00 -9999.00 -9999.00 -9999.00 -9999.00 -9999.00 -9999.00 -9999.00 -9999.00 -9999.00 -9999.00 -9999.00 -9999.00 -9999.00 -9999.00 -9999.00 -9999.00 -9999.00 -9999.00 -9999.00 -9999.00 -9999.00 -9999.00 -9999.00 -9999.00 -9999.00 -9999.00 -9999.00 -9999.00 -9999.00 -9999.00 -9999.00 -9999.00 -9999.00 -9999.00 -9999.00 -9999.00 -9999.00 -9999.00 -9999.00 -9999.00 -9999.00 -9999.00 -9999.00 -9999.00 -9999.00 -9999.00 -9999.00 -9999.00 -9999.00 -9999.00 -9999.00 -9999.00 -9999.00 -9999.00 -9999.00 -9999.00 -9999.00 -9999.00 -9999.00 -20.81 -20.69 -20.59 -20.45 -20.32 -20.18 -20.05 -19.90 -19.76 -19.63 -19.55 -19.48 -19.41 -19.29 -19.18 -19.10 -19.05 -18.94 -18.84 -18.80 -18.82 -18.84 -18.84 -18.85 -18.88 -18.86 -18.84 -18.82 -18.82 -18.78 -18.68 -18.55 -18.42 -18.29 -18.14 -17.97 -17.80 -17.66 -17.55 -17.37 -17.25 -17.11 -16.93 -16.77 -16.62 -16.50 -16.40 -16.29 -16.21 -16.06 -15.95 -15.88 -15.75 -15.68 -15.59 -15.48 -15.39 -15.33 -15.28 -15.19 -15.12 -15.06 -14.99 -14.95 -14.91 -14.88 -14.85 -14.83 -14.80 -14.76 -14.68 -14.60 -14.56 -14.52 -14.51 -14.49 -14.44 -14.39 -14.36 -14.35 -14.31 -14.30 -14.31 -14.28 -14.23 -14.21 -14.16 -14.12 -14.08 -14.06 -14.03 -14.03 -14.01 -13.98 -13.90 -13.81 -13.68 -13.62 -13.59 -13.56 -13.53 -13.51 -13.48 -13.42 -13.42 -13.39 -13.37 -13.35 -13.31 -13.28 -13.28 -13.29 -13.32 -13.36 -13.39 -13.40 -13.37 -13.31 -13.23 -13.14 -13.10 -13.05 -13.02 -12.98 -12.89 -12.77 -12.66 -12.61 -12.52 -12.38 -12.31 -12.22 -12.10 -11.99 -11.92 -11.86 -11.79 -11.80 -11.78 -11.69 -11.61 -11.55 -11.49 -11.41 -11.38 -11.34 -11.33 -11.29 -11.25 -11.22 -11.29 -11.32 -11.30 -11.28 -11.24 -11.23 -11.22 -11.20 -11.13 -11.07 -11.00 -10.92 -10.85 -10.79 -10.76 -10.78 -10.70 -10.60 -10.58 -10.54 -10.50 -10.49 -10.46 -10.45 -10.47 -10.44 -10.40 -10.36 -10.31 -10.30 -10.24 -10.21 -10.19 -10.09 -9.97 -9.96 -9.93 -9.96 -9.93 -9.81 -9.73 -9.66 -9.62 -9.70 -9.70 -9.67 -9.73 -9.82 -9.77 -9.68 -9.62 -9.55 -9.47 -9.47 -9.56 -9.56 -9.56 -9.52 -9.51 -9.48 -9.35 -9.29 -9.28 -9.27 -9.27 -9.26 -9.22 -9.17 -9.14 -9.11 -9.08 -9.21 -9.16 -9.11 -9.09 -9.08 -9.05 -9.02 -8.97 -8.83 -8.67 -8.53 -8.43 -8.35 -8.27 -8.19 -8.10 -8.04 -7.99 -7.96 -7.92 -7.89 -7.89 -7.88 -7.86 -7.83 -7.75 -7.71 -7.70 -7.67 -7.60 -7.52 -7.44 -7.40 -7.39 -7.41 -7.43 -7.46 -7.40 -7.40 -7.36 -7.47 -7.62 -7.74 -7.83 -7.90 -7.85
-9999.00 -9999.00 -9999.00 -9999.00 -9999.00 -9999.00 -9999.00 -9999.00 -9999.00 -9999.00 -9999.00 -9999.00 -9999.00 -9999.00 -9999.00 -9999.00 -9999.00 -9999.00 -9999.00 -9999.00 -9999.00 -9999.00 -9999.00 -9999.00 -9999.00 -9999.00 -9999.00 -9999.00 -9999.00 -9999.00 -9999.00 -9999.00 -9999.00 -9999.00 -9999.00 -9999.00 -9999.00 -9999.00 -9999.00 -9999.00 -9999.00 -9999.00 -9999.00 -9999.00 -9999.00 -9999.00 -9999.00 -9999.00 -9999.00 -9999.00 -9999.00 -9999.00 -9999.00 -9999.00 -9999.00 -9999.00 -9999.00 -9999.00 -9999.00 -9999.00 -9999.00 -9999.00 -9999.00 -9999.00 -9999.00 -9999.00 -9999.00 -9999.00 -9999.00 -9999.00 -9999.00 -9999.00 -9999.00 -9999.00 -9999.00 -9999.00 -9999.00 -9999.00 -9999.00 -9999.00 -9999.00 -9999.00 -9999.00 -9999.00 -9999.00 -9999.00 -9999.00 -9999.00 -9999.00 -9999.00 -9999.00 -9999.00 -9999.00 -9999.00 -9999.00 -9999.00 -9999.00 -9999.00 -9999.00 -9999.00 -9999.00 -9999.00 -9999.00 -9999.00 -9999.00 -9999.00 -9999.00 -9999.00 -21.06 -20.88 -20.77 -20.66 -20.52 -20.39 -20.25 -20.12 -19.95 -19.85 -19.69 -19.53 -19.41 -19.33 -19.21 -19.10 -19.08 -19.00 -18.84 -18.74 -18.66 -18.69 -18.70 -18.71 -18.74 -18.73 -18.71 -18.69 -18.68 -18.66 -18.63 -18.55 -18.43 -18.29 -18.14 -17.98 -17.82 -17.65 -17.49 -17.38 -17.20 -17.07 -16.93 -16.75 -16.60 -16.47 -16.37 -16.26 -16.13 -16.04 -15.92 -15.81 -15.73 -15.63 -15.54 -15.44 -15.34 -15.26 -15.21 -15.16 -15.10 -15.04 -14.99 -14.90 -14.86 -14.83 -14.80 -14.76 -14.74 -14.71 -14.68 -14.62 -14.58 -14.51 -14.47 -14.47 -14.43 -14.39 -14.38 -14.34 -14.31 -14.27 -14.25 -14.24 -14.21 -14.17 -14.13 -14.09 -14.05 -14.00 -13.95 -13.91 -13.90 -13.87 -13.80 -13.77 -13.70 -13.61 -13.55 -13.53 -13.50 -13.47 -13.44 -13.42 -13.39 -13.37 -13.33 -13.35 -13.30 -13.26 -13.23 -13.23 -13.20 -13.24 -13.28 -13.29 -13.32 -13.31 -13.18 -13.14 -13.12 -13.08 -13.06 -13.04 -12.98 -12.93 -12.84 -12.74 -12.66 -12.51 -12.40 -12.33 -12.17 -12.04 -11.96 -11.90 -11.85 -11.84 -11.79 -11.75 -11.70 -11.61 -11.48 -11.38 -11.34 -11.28 -11.23 -11.15 -11.11 -11.09 -11.12 -11.13 -11.19 -11.23 -11.21 -11.21 -11.21 -11.19 -11.17 -11.16 -11.09 -11.00 -10.90 -10.79 -10.75 -10.74 -10.70 -10.66 -10.60 -10.56 -10.47 -10.45 -10.44 -10.42 -10.43 -10.42 -10.39 -10.40 -10.34 -10.28 -10.28 -10.25 -10.18 -10.15 -10.08 -10.00 -9.95 -9.87 -9.90 -9.86 -9.85 -9.80 -9.75 -9.66 -9.65 -9.59 -9.51 -9.62 -9.65 -9.70 -9.67 -9.64 -9.59 -9.53 -9.49 -9.47 -9.46 -9.50 -9.52 -9.53 -9.44 -9.37 -9.31 -9.23 -9.21 -9.20 -9.19 -9.19 -9.18 -9.15 -9.10 -9.03 -9.07 -9.06 -9.05 -9.05 -9.02 -8.95 -8.87 -8.76 -8.66 -8.60 -8.60 -8.63 -8.58 -8.49 -8.36 -8.21 -8.06 -7.96 -7.91 -7.92 -7.93 -7.93 -7.94 -7.91 -7.80 -7.72 -7.64 -7.58 -7.52 -7.44 -7.33 -7.23 -7.16 -7.27 -7.33 -7.37 -7.40 -7.45 -7.42 -7.39 -7.39 -7.43 -7.50 -7.56 -7.68 -7.80 -7.79
-9999.00 -9999.00 -9999.00 -9999.00 -9999.00 -9999.00 -9999.00 -9999.00 -9999.00 -9999.00 -9999.00 -9999.00 -9999.00 -9999.00 -9999.00 -9999.00 -9999.00 -9999.00 -9999.00 -9999.00 -9999.00 -9999.00 -9999.00 -9999.00 -9999.00 -9999.00 -9999.00 -9999.00 -9999.00 -9999.00 -9999.00 -9999.00 -9999.00 -9999.00 -9999.00 -9999.00 -9999.00 -9999.00 -9999.00 -9999.00 -9999.00 -9999.00 -9999.00 -9999.00 -9999.00 -9999.00 -9999.00 -9999.00 -9999.00 -9999.00 -9999.00 -9999.00 -9999.00 -9999.00 -9999.00 -9999.00 -9999.00 -9999.00 -9999.00 -9999.00 -9999.00 -9999.00 -9999.00 -9999.00 -9999.00 -9999.00 -9999.00 -9999.00 -9999.00 -9999.00 -9999.00 -9999.00 -9999.00 -9999.00 -9999.00 -9999.00 -9999.00 -9999.00 -9999.00 -9999.00 -9999.00 -9999.00 -9999.00 -9999.00 -9999.00 -9999.00 -9999.00 -9999.00 -9999.00 -9999.00 -9999.00 -9999.00 -9999.00 -9999.00 -9999.00 -9999.00 -9999.00 -9999.00 -9999.00 -9999.00 -9999.00 -9999.00 -9999.00 -9999.00 -9999.00 -9999.00 -9999.00 -21.11 -20.95 -20.85 -20.73 -20.60 -20.46 -20.33 -20.16 -20.05 -19.95 -19.79 -19.63 -19.48 -19.32 -19.13 -19.06 -19.05 -18.98 -18.84 -18.69 -18.53 -18.55 -18.57 -18.61 -18.61 -18.58 -18.57 -18.55 -18.54 -18.51 -18.45 -18.36 -18.24 -18.12 -18.00 -17.83 -17.67 -17.52 -17.34 -17.20 -17.03 -16.90 -16.75 -16.58 -16.43 -16.33 -16.22 -16.10 -15.97 -15.87 -15.77 -15.68 -15.58 -15.49 -15.39 -15.30 -15.20 -15.12 -15.08 -15.04 -15.00 -14.92 -14.86 -14.80 -14.77 -14.73 -14.69 -14.66 -14.61 -14.62 -14.57 -14.53 -14.53 -14.48 -14.44 -14.41 -14.37 -14.33 -14.30 -14.31 -14.27 -14.23 -14.20 -14.17 -14.14 -14.10 -14.06 -14.02 -13.97 -13.92 -13.86 -13.80 -13.75 -13.71 -13.67 -13.61 -13.55 -13.48 -13.45 -13.45 -13.44 -13.41 -13.38 -13.35 -13.33 -13.29 -13.27 -13.28 -13.25 -13.23 -13.18 -13.17 -13.12 -13.17 -13.15 -13.20 -13.21 -13.21 -13.18 -13.14 -13.12 -13.07 -13.04 -13.02 -12.96 -12.94 -12.87 -12.78 -12.70 -12.56 -12.41 -12.29 -12.12 -12.00 -11.92 -11.83 -11.81 -11.80 -11.78 -11.74 -11.68 -11.62 -11.46 -11.34 -11.24 -11.15 -11.07 -10.99 -10.93 -10.95 -10.96 -11.00 -11.02 -11.07 -11.09 -11.14 -11.18 -11.12 -11.10 -11.08 -11.08 -11.02 -10.94 -10.88 -10.82 -10.73 -10.61 -10.59 -10.58 -10.55 -10.47 -10.41 -10.42 -10.41 -10.38 -10.36 -10.31 -10.28 -10.27 -10.24 -10.22 -10.18 -10.15 -10.09 -10.04 -10.04 -9.98 -9.91 -9.86 -9.81 -9.82 -9.86 -9.83 -9.76 -9.70 -9.54 -9.45 -9.51 -9.61 -9.63 -9.62 -9.57 -9.52 -9.49 -9.46 -9.46 -9.47 -9.43 -9.47 -9.46 -9.46 -9.33 -9.25 -9.23 -9.21 -9.20 -9.20 -9.20 -9.20 -9.16 -9.11 -9.06 -9.01 -8.94 -8.91 -8.90 -8.94 -8.94 -8.84 -8.77 -8.74 -8.73 -8.68 -8.66 -8.61 -8.56 -8.37 -8.28 -8.18 -8.09 -8.00 -7.96 -8.02 -8.03 -8.02 -7.91 -7.84 -7.80 -7.73 -7.61 -7.53 -7.45 -7.36 -7.29 -7.25 -7.26 -7.31 -7.35 -7.40 -7.42 -7.45 -7.43 -7.40 -7.37 -7.38 -7.45 -7.51 -7.61 -7.71 -7.70
-9999.00 -9999.00 -9999.00 -9999.00 -9999.00 -9999.00 -9999.00 -9999.00 -9999.00 -9999.00 -9999.00 -9999.00 -9999.00 -9999.00 -9999.00 -9999.00 -9999.00 -9999.00 -9999.00 -9999.00 -9999.00 -9999.00 -9999.00 -9999.00 -9999.00 -9999.00 -9999.00 -9999.00 -9999.00 -9999.00 -9999.00 -9999.00 -9999.00 -9999.00 -9999.00 -9999.00 -9999.00 -9999.00 -9999.00 -9999.00 -9999.00 -9999.00 -9999.00 -9999.00 -9999.00 -9999.00 -9999.00 -9999.00 -9999.00 -9999.00 -9999.00 -9999.00 -9999.00 -9999.00 -9999.00 -9999.00 -9999.00 -9999.00 -9999.00 -9999.00 -9999.00 -9999.00 -9999.00 -9999.00 -9999.00 -9999.00 -9999.00 -9999.00 -9999.00 -9999.00 -9999.00 -9999.00 -9999.00 -9999.00 -9999.00 -9999.00 -9999.00 -9999.00 -9999.00 -9999.00 -9999.00 -9999.00 -9999.00 -9999.00 -9999.00 -9999.00 -9999.00 -9999.00 -9999.00 -9999.00 -9999.00 -9999.00 -9999.00 -9999.00 -9999.00 -9999.00 -9999.00 -9999.00 -9999.00 -9999.00 -9999.00 -9999.00 -9999.00 -9999.00 -9999.00 -9999.00 -21.17 -21.02 -20.92 -20.81 -20.67 -20.54 -20.38 -20.25 -20.15 -20.04 -19.89 -19.73 -19.58 -19.42 -19.20 -19.10 -19.03 -18.96 -18.86 -18.70 -18.57 -18.48 -18.47 -18.48 -18.46 -18.44 -18.42 -18.40 -18.39 -18.33 -18.26 -18.16 -18.05 -17.93 -17.81 -17.69 -17.55 -17.36 -17.19 -17.03 -16.87 -16.72 -16.56 -16.43 -16.29 -16.19 -16.06 -15.93 -15.81 -15.71 -15.63 -15.54 -15.44 -15.32 -15.22 -15.18 -15.10 -15.01 -14.99 -14.94 -14.89 -14.82 -14.76 -14.70 -14.66 -14.62 -14.58 -14.53 -14.52 -14.51 -14.46 -14.43 -14.43 -14.38 -14.38 -14.35 -14.32 -14.28 -14.26 -14.23 -14.21 -14.18 -14.15 -14.10 -14.06 -14.02 -13.99 -13.94 -13.90 -13.85 -13.77 -13.70 -13.62 -13.57 -13.52 -13.45 -13.40 -13.35 -13.29 -13.24 -13.24 -13.23 -13.23 -13.24 -13.24 -13.24 -13.21 -13.20 -13.20 -13.14 -13.10 -13.06 -13.04 -13.09 -13.03 -13.08 -13.11 -13.13 -13.16 -13.10 -13.08 -13.05 -13.05 -12.97 -12.97 -12.90 -12.87 -12.79 -12.73 -12.54 -12.38 -12.27 -12.13 -12.03 -11.85 -11.78 -11.80 -11.75 -11.69 -11.61 -11.56 -11.52 -11.43 -11.29 -11.15 -11.04 -10.98 -10.88 -10.80 -10.75 -10.74 -10.77 -10.87 -10.93 -10.94 -10.99 -11.05 -11.11 -11.06 -11.02 -11.01 -11.02 -11.00 -10.90 -10.78 -10.70 -10.66 -10.58 -10.53 -10.51 -10.46 -10.45 -10.41 -10.37 -10.32 -10.29 -10.23 -10.20 -10.18 -10.19 -10.16 -10.13 -10.07 -10.05 -10.07 -10.01 -9.96 -9.91 -9.84 -9.78 -9.69 -9.76 -9.79 -9.79 -9.69 -9.60 -9.46 -9.48 -9.49 -9.48 -9.51 -9.51 -9.51 -9.51 -9.46 -9.45 -9.38 -9.39 -9.41 -9.40 -9.41 -9.38 -9.27 -9.20 -9.14 -9.11 -9.10 -9.09 -9.12 -9.07 -9.05 -9.02 -8.98 -8.92 -8.87 -8.85 -8.88 -8.88 -8.87 -8.83 -8.81 -8.76 -8.74 -8.71 -8.64 -8.57 -8.49 -8.45 -8.37 -8.29 -8.21 -8.20 -8.16 -8.12 -8.10 -8.05 -7.99 -7.90 -7.79 -7.62 -7.44 -7.36 -7.27 -7.22 -7.25 -7.27 -7.30 -7.33 -7.36 -7.39 -7.42 -7.44 -7.42 -7.41 -7.39 -7.39 -7.41 -7.44 -7.54 -7.64 -7.68
-9999.00 -9999.00 -9999.00 -9999.00 -9999.00 -9999.00 -9999.00 -9999.00 -9999.00 -9999.00 -9999.00 -9999.00 -9999.00 -9999.00 -9999.00 -9999.00 -9999.00 -9999.00 -9999.00 -9999.00 -9999.00 -9999.00 -9999.00 -9999.00 -9999.00 -9999.00 -9999.00 -9999.00 -9999.00 -9999.00 -9999.00 -9999.00 -9999.00 -9999.00 -9999.00 -9999.00 -9999.00 -9999.00 -9999.00 -9999.00 -9999.00 -9999.00 -9999.00 -9999.00 -9999.00 -9999.00 -9999.00 -9999.00 -9999.00 -9999.00 -9999.00 -9999.00 -9999.00 -9999.00 -9999.00 -9999.00 -9999.00 -9999.00 -9999.00 -9999.00 -9999.00 -9999.00 -9999.00 -9999.00 -9999.00 -9999.00 -9999.00 -9999.00 -9999.00 -9999.00 -9999.00 -9999.00 -9999.00 -9999.00 -9999.00 -9999.00 -9999.00 -9999.00 -9999.00 -9999.00 -9999.00 -9999.00 -9999.00 -9999.00 -9999.00 -9999.00 -9999.00 -9999.00 -9999.00 -9999.00 -9999.00 -9999.00 -9999.00 -9999.00 -9999.00 -9999.00 -9999.00 -9999.00 -9999.00 -9999.00 -9999.00 -9999.00 -9999.00 -9999.00 -9999.00 -21.22 -21.08 -21.00 -20.88 -20.75 -20.60 -20.44 -20.34 -20.24 -20.14 -19.99 -19.84 -19.67 -19.52 -19.32 -19.23 -19.10 -18.96 -18.87 -18.69 -18.60 -18.53 -18.43 -18.33 -18.31 -18.30 -18.28 -18.26 -18.21 -18.15 -18.08 -17.97 -17.85 -17.74 -17.62 -17.50 -17.39 -17.21 -17.03 -16.87 -16.71 -16.55 -16.42 -16.27 -16.14 -16.02 -15.90 -15.77 -15.65 -15.55 -15.49 -15.40 -15.31 -15.19 -15.12 -15.10 -15.05 -14.96 -14.90 -14.84 -14.77 -14.71 -14.67 -14.61 -14.57 -14.50 -14.45 -14.41 -14.43 -14.41 -14.36 -14.34 -14.30 -14.28 -14.28 -14.27 -14.25 -14.22 -14.19 -14.15 -14.15 -14.11 -14.08 -14.03 -13.98 -13.96 -13.92 -13.87 -13.81 -13.77 -13.69 -13.62 -13.55 -13.47 -13.37 -13.33 -13.29 -13.25 -13.19 -13.13 -13.08 -13.06 -13.06 -13.06 -13.12 -13.09 -13.10 -13.14 -13.04 -13.05 -12.96 -12.92 -12.96 -12.97 -12.96 -12.94 -13.01 -13.05 -13.09 -13.03 -13.02 -13.05 -12.99 -12.97 -12.92 -12.85 -12.79 -12.72 -12.61 -12.47 -12.37 -12.26 -12.13 -12.04 -11.87 -11.79 -11.71 -11.65 -11.58 -11.46 -11.41 -11.35 -11.32 -11.21 -11.09 -10.99 -10.88 -10.76 -10.65 -10.58 -10.54 -10.61 -10.73 -10.75 -10.75 -10.81 -10.88 -10.94 -10.96 -11.03 -11.00 -10.97 -10.92 -10.88 -10.81 -10.73 -10.64 -10.55 -10.48 -10.45 -10.45 -10.41 -10.36 -10.31 -10.27 -10.23 -10.18 -10.16 -10.12 -10.11 -10.06 -10.05 -10.03 -10.04 -9.99 -9.97 -9.92 -9.88 -9.84 -9.77 -9.71 -9.66 -9.69 -9.67 -9.71 -9.52 -9.56 -9.52 -9.47 -9.48 -9.42 -9.45 -9.43 -9.46 -9.40 -9.36 -9.37 -9.40 -9.37 -9.40 -9.31 -9.34 -9.24 -9.17 -9.09 -9.10 -9.12 -9.11 -9.08 -9.05 -9.00 -8.93 -8.91 -8.89 -8.84 -8.82 -8.79 -8.77 -8.77 -8.78 -8.78 -8.75 -8.74 -8.71 -8.69 -8.64 -8.61 -8.52 -8.48 -8.43 -8.39 -8.31 -8.25 -8.23 -8.15 -8.07 -7.99 -7.91 -7.77 -7.63 -7.48 -7.32 -7.21 -7.10 -7.07 -7.12 -7.16 -7.20 -7.29 -7.34 -7.37 -7.40 -7.42 -7.42 -7.43 -7.43 -7.44 -7.44 -7.49 -7.54 -7.59 -7.60
-9999.00 -9999.00 -9999.00 -9999.00 -9999.00 -9999.00 -9999.00 -9999.00 -9999.00 -9999.00 -9999.00 -9999.00 -9999.00 -9999.00 -9999.00 -9999.00 -9999.00 -9999.00 -9999.00 -9999.00 -9999.00 -9999.00 -9999.00 -9999.00 -9999.00 -9999.00 -9999.00 -9999.00 -9999.00 -9999.00 -9999.00 -9999.00 -9999.00 -9999.00 -9999.00 -9999.00 -9999.00 -9999.00 -9999.00 -9999.00 -9999.00 -9999.00 -9999.00 -9999.00 -9999.00 -9999.00 -9999.00 -9999.00 -9999.00 -9999.00 -9999.00 -9999.00 -9999.00 -9999.00 -9999.00 -9999.00 -9999.00 -9999.00 -9999.00 -9999.00 -9999.00 -9999.00 -9999.00 -9999.00 -9999.00 -9999.00 -9999.00 -9999.00 -9999.00 -9999.00 -9999.00 -9999.00 -9999.00 -9999.00 -9999.00 -9999.00 -9999.00 -9999.00 -9999.00 -9999.00 -9999.00 -9999.00 -9999.00 -9999.00 -9999.00 -9999.00 -9999.00 -9999.00 -9999.00 -9999.00 -9999.00 -9999.00 -9999.00 -9999.00 -9999.00 -9999.00 -9999.00 -9999.00 -9999.00 -9999.00 -9999.00 -9999.00 -9999.00 -9999.00 -21.26 -21.14 -21.08 -20.96 -20.81 -20.64 -20.54 -20.44 -20.34 -20.23 -20.09 -19.94 -19.78 -19.62 -19.42 -19.33 -19.20 -19.05 -18.90 -18.75 -18.64 -18.53 -18.43 -18.34 -18.25 -18.15 -18.13 -18.11 -18.04 -17.98 -17.89 -17.78 -17.66 -17.54 -17.42 -17.33 -17.23 -17.07 -16.87 -16.70 -16.55 -16.38 -16.25 -16.11 -15.95 -15.79 -15.74 -15.61 -15.49 -15.41 -15.34 -15.26 -15.15 -15.06 -15.04 -14.98 -14.94 -14.88 -14.84 -14.73 -14.67 -14.62 -14.54 -14.50 -14.43 -14.37 -14.33 -14.33 -14.33 -14.30 -14.26 -14.24 -14.20 -14.18 -14.17 -14.15 -14.14 -14.15 -14.12 -14.09 -14.07 -14.04 -13.98 -13.95 -13.91 -13.89 -13.84 -13.77 -13.73 -13.69 -13.62 -13.56 -13.49 -13.40 -13.32 -13.26 -13.20 -13.15 -13.10 -13.06 -13.00 -12.96 -12.91 -12.92 -12.91 -12.97 -12.97 -13.05 -12.98 -12.94 -12.89 -12.87 -12.85 -12.83 -12.83 -12.82 -12.83 -12.82 -12.83 -12.90 -12.92 -12.88 -12.91 -12.93 -12.86 -12.80 -12.72 -12.63 -12.52 -12.38 -12.26 -12.20 -12.10 -11.96 -11.85 -11.71 -11.61 -11.53 -11.37 -11.29 -11.26 -11.24 -11.19 -11.17 -11.07 -10.95 -10.84 -10.67 -10.54 -10.49 -10.50 -10.57 -10.62 -10.68 -10.66 -10.69 -10.72 -10.77 -10.82 -10.85 -10.89 -10.90 -10.86 -10.84 -10.78 -10.72 -10.64 -10.55 -10.48 -10.42 -10.37 -10.33 -10.31 -10.27 -10.22 -10.17 -10.11 -10.09 -10.06 -10.01 -9.95 -10.01 -9.99 -9.97 -9.91 -9.91 -9.89 -9.84 -9.81 -9.76 -9.70 -9.65 -9.61 -9.59 -9.62 -9.64 -9.60 -9.56 -9.49 -9.43 -9.39 -9.37 -9.35 -9.37 -9.34 -9.33 -9.34 -9.32 -9.30 -9.32 -9.36 -9.29 -9.17 -9.12 -9.13 -9.01 -9.00 -8.98 -8.94 -8.89 -8.92 -8.90 -8.81 -8.77 -8.71 -8.69 -8.66 -8.64 -8.64 -8.65 -8.68 -8.66 -8.62 -8.61 -8.63 -8.64 -8.63 -8.59 -8.60 -8.53 -8.45 -8.38 -8.32 -8.32 -8.23 -8.13 -8.03 -7.93 -7.83 -7.69 -7.53 -7.40 -7.32 -7.34 -7.32 -7.28 -7.23 -7.18 -7.12 -7.16 -7.24 -7.30 -7.39 -7.43 -7.43 -7.40 -7.37 -7.40 -7.43 -7.46 -7.50 -7.54 -7.58
-9999.00 -9999.00 -9999.00 -9999.00 -9999.00 -9999.00 -9999.00 -9999.00 -9999.00 -9999.00 -9999.00 -9999.00 -9999.00 -9999.00 -9999.00 -9999.00 -9999.00 -9999.00 -9999.00 -9999.00 -9999.00 -9999.00 -9999.00 -9999.00 -9999.00 -9999.00 -9999.00 -9999.00 -9999.00 -9999.00 -9999.00 -9999.00 -9999.00 -9999.00 -9999.00 -9999.00 -9999.00 -9999.00 -9999.00 -9999.00 -9999.00 -9999.00 -9999.00 -9999.00 -9999.00 -9999.00 -9999.00 -9999.00 -9999.00 -9999.00 -9999.00 -9999.00 -9999.00 -9999.00 -9999.00 -9999.00 -9999.00 -9999.00 -9999.00 -9999.00 -9999.00 -9999.00 -9999.00 -9999.00 -9999.00 -9999.00 -9999.00 -9999.00 -9999.00 -9999.00 -9999.00 -9999.00 -9999.00 -9999.00 -9999.00 -9999.00 -9999.00 -9999.00 -9999.00 -9999.00 -9999.00 -9999.00 -9999.00 -9999.00 -9999.00 -9999.00 -9999.00 -9999.00 -9999.00 -9999.00 -9999.00 -9999.00 -9999.00 -9999.00 -9999.00 -9999.00 -9999.00 -9999.00 -9999.00 -9999.00 -9999.00 -9999.00 -9999.00 -21.27 -21.19 -21.16 -21.03 -20.85 -20.73 -20.63 -20.53 -20.44 -20.33 -20.19 -20.04 -19.88 -19.72 -19.53 -19.43 -19.30 -19.14 -18.99 -18.84 -18.67 -18.49 -18.38 -18.27 -18.20 -18.12 -18.03 -17.95 -17.88 -17.81 -17.70 -17.59 -17.47 -17.35 -17.25 -17.16 -17.06 -16.94 -16.75 -16.55 -16.39 -16.22 -16.05 -15.94 -15.78 -15.65 -15.51 -15.43 -15.33 -15.27 -15.20 -15.12 -15.01 -14.97 -14.92 -14.87 -14.83 -14.74 -14.68 -14.61 -14.56 -14.47 -14.43 -14.36 -14.31 -14.26 -14.25 -14.24 -14.24 -14.20 -14.15 -14.14 -14.10 -14.07 -14.05 -14.05 -14.04 -14.05 -14.01 -14.03 -14.00 -13.96 -13.91 -13.87 -13.86 -13.83 -13.76 -13.69 -13.67 -13.62 -13.56 -13.51 -13.42 -13.34 -13.28 -13.22 -13.16 -13.09 -13.04 -12.99 -12.94 -12.90 -12.86 -12.78 -12.82 -12.85 -12.85 -12.88 -12.91 -12.88 -12.87 -12.80 -12.77 -12.75 -12.72 -12.69 -12.63 -12.59 -12.66 -12.68 -12.68 -12.71 -12.68 -12.71 -12.75 -12.72 -12.62 -12.53 -12.40 -12.28 -12.17 -12.06 -12.00 -11.92 -11.78 -11.67 -11.52 -11.41 -11.28 -11.19 -11.12 -11.10 -11.11 -11.09 -11.04 -10.95 -10.83 -10.70 -10.55 -10.38 -10.40 -10.47 -10.49 -10.50 -10.54 -10.58 -10.65 -10.70 -10.67 -10.71 -10.75 -10.77 -10.81 -10.69 -10.68 -10.65 -10.62 -10.56 -10.47 -10.39 -10.34 -10.27 -10.25 -10.19 -10.18 -10.11 -10.07 -10.02 -10.00 -10.01 -9.97 -9.93 -9.93 -9.90 -9.88 -9.84 -9.80 -9.73 -9.72 -9.71 -9.66 -9.61 -9.57 -9.51 -9.53 -9.55 -9.55 -9.49 -9.45 -9.42 -9.36 -9.35 -9.28 -9.27 -9.32 -9.28 -9.27 -9.22 -9.27 -9.26 -9.19 -9.21 -9.20 -9.16 -9.09 -9.02 -8.99 -8.92 -8.88 -8.90 -8.88 -8.80 -8.71 -8.62 -8.58 -8.53 -8.51 -8.50 -8.50 -8.44 -8.42 -8.45 -8.49 -8.52 -8.54 -8.56 -8.60 -8.61 -8.60 -8.57 -8.52 -8.42 -8.34 -8.29 -8.27 -8.25 -8.16 -8.05 -7.96 -7.87 -7.81 -7.76 -7.71 -7.64 -7.55 -7.44 -7.33 -7.26 -7.17 -7.10 -7.11 -7.16 -7.20 -7.26 -7.28 -7.33 -7.36 -7.36 -7.36 -7.34 -7.37 -7.42 -7.46 -7.50
-9999.00 -9999.00 -9999.00 -9999.00 -9999.00 -9999.00 -9999.00 -9999.00 -9999.00 -9999.00 -9999.00 -9999.00 -9999.00 -9999.00 -9999.00 -9999.00 -9999.00 -9999.00 -9999.00 -9999.00 -9999.00 -9999.00 -9999.00 -9999.00 -9999.00 -9999.00 -9999.00 -9999.00 -9999.00 -9999.00 -9999.00 -9999.00 -9999.00 -9999.00 -9999.00 -9999.00 -9999.00 -9999.00 -9999.00 -9999.00 -9999.00 -9999.00 -9999.00 -9999.00 -9999.00 -9999.00 -9999.00 -9999.00 -9999.00 -9999.00 -9999.00 -9999.00 -9999.00 -9999.00 -9999.00 -9999.00 -9999.00 -9999.00 -9999.00 -9999.00 -9999.00 -9999.00 -9999.00 -9999.00 -9999.00 -9999.00 -9999.00 -9999.00 -9999.00 -9999.00 -9999.00 -9999.00 -9999.00 -9999.00 -9999.00 -9999.00 -9999.00 -9999.00 -9999.00 -9999.00 -9999.00 -9999.00 -9999.00 -9999.00 -9999.00 -9999.00 -9999.00 -9999.00 -9999.00 -9999.00 -9999.00 -9999.00 -9999.00 -9999.00 -9999.00 -9999.00 -9999.00 -9999.00 -9999.00 -9999.00 -9999.00 -9999.00 -21.27 -21.21 -21.15 -21.06 -20.93 -20.83 -20.73 -20.63 -20.53 -20.43 -20.29 -20.14 -19.98 -19.81 -19.65 -19.52 -19.40 -19.23 -19.08 -18.93 -18.75 -18.54 -18.34 -18.20 -18.11 -18.00 -17.93 -17.81 -17.72 -17.62 -17.51 -17.40 -17.27 -17.18 -17.08 -16.99 -16.89 -16.78 -16.62 -16.42 -16.25 -16.05 -15.89 -15.78 -15.65 -15.55 -15.42 -15.33 -15.21 -15.14 -15.06 -14.98 -14.91 -14.87 -14.79 -14.73 -14.67 -14.61 -14.55 -14.50 -14.43 -14.39 -14.35 -14.24 -14.20 -14.18 -14.16 -14.16 -14.13 -14.11 -14.05 -14.02 -13.99 -13.95 -13.94 -13.95 -13.95 -13.94 -13.95 -13.94 -13.91 -13.88 -13.83 -13.81 -13.79 -13.76 -13.67 -13.64 -13.60 -13.56 -13.50 -13.44 -13.36 -13.31 -13.24 -13.18 -13.12 -13.04 -12.99 -12.95 -12.90 -12.86 -12.81 -12.74 -12.75 -12.71 -12.76 -12.82 -12.80 -12.79 -12.75 -12.74 -12.69 -12.67 -12.62 -12.57 -12.54 -12.49 -12.44 -12.44 -12.48 -12.50 -12.46 -12.40 -12.46 -12.55 -12.54 -12.41 -12.30 -12.18 -12.07 -12.00 -11.94 -11.82 -11.76 -11.70 -11.51 -11.36 -11.20 -11.10 -11.06 -11.02 -10.99 -11.00 -10.96 -10.95 -10.88 -10.78 -10.66 -10.55 -10.43 -10.42 -10.47 -10.47 -10.50 -10.57 -10.61 -10.58 -10.53 -10.58 -10.60 -10.66 -10.69 -10.67 -10.59 -10.55 -10.52 -10.50 -10.43 -10.35 -10.30 -10.24 -10.17 -10.13 -10.09 -10.05 -10.00 -9.98 -9.95 -9.93 -9.91 -9.88 -9.87 -9.85 -9.81 -9.77 -9.72 -9.71 -9.65 -9.61 -9.56 -9.55 -9.51 -9.49 -9.48 -9.39 -9.46 -9.42 -9.42 -9.40 -9.31 -9.25 -9.24 -9.14 -9.22 -9.23 -9.22 -9.19 -9.19 -9.18 -9.17 -9.18 -9.14 -9.13 -9.10 -9.07 -9.05 -8.97 -8.93 -8.90 -8.83 -8.75 -8.65 -8.52 -8.45 -8.41 -8.37 -8.37 -8.33 -8.29 -8.22 -8.17 -8.21 -8.28 -8.33 -8.39 -8.45 -8.49 -8.48 -8.49 -8.49 -8.41 -8.31 -8.21 -8.18 -8.19 -8.18 -8.12 -8.06 -8.01 -7.96 -7.88 -7.75 -7.67 -7.60 -7.53 -7.39 -7.29 -7.24 -7.18 -7.12 -7.13 -7.16 -7.19 -7.22 -7.24 -7.23 -7.27 -7.27 -7.31 -7.31 -7.35 -7.39 -7.43 -7.48
-9999.00 -9999.00 -9999.00 -9999.00 -9999.00 -9999.00 -9999.00 -9999.00 -9999.00 -9999.00 -9999.00 -9999.00 -9999.00 -9999.00 -9999.00 -9999.00 -9999.00 -9999.00 -9999.00 -9999.00 -9999.00 -9999.00 -9999.00 -9999.00 -9999.00 -9999.00 -9999.00 -9999.00 -9999.00 -9999.00 -9999.00 -9999.00 -9999.00 -9999.00 -9999.00 -9999.00 -9999.00 -9999.00 -9999.00 -9999.00 -9999.00 -9999.00 -9999.00 -9999.00 -9999.00 -9999.00 -9999.00 -9999.00 -9999.00 -9999.00 -9999.00 -9999.00 -9999.00 -9999.00 -9999.00 -9999.00 -9999.00 -9999.00 -9999.00 -9999.00 -9999.00 -9999.00 -9999.00 -9999.00 -9999.00 -9999.00 -9999.00 -9999.00 -9999.00 -9999.00 -9999.00 -9999.00 -9999.00 -9999.00 -9999.00 -9999.00 -9999.00 -9999.00 -9999.00 -9999.00 -9999.00 -9999.00 -9999.00 -9999.00 -9999.00 -9999.00 -9999.00 -9999.00 -9999.00 -9999.00 -9999.00 -9999.00 -9999.00 -9999.00 -9999.00 -9999.00 -9999.00 -9999.00 -9999.00 -9999.00 -9999.00 -21.28 -21.21 -21.15 -21.09 -21.05 -20.93 -20.83 -20.73 -20.63 -20.52 -20.39 -20.23 -20.07 -19.91 -19.77 -19.62 -19.49 -19.32 -19.17 -19.00 -18.81 -18.60 -18.41 -18.20 -18.01 -17.91 -17.81 -17.71 -17.61 -17.48 -17.32 -17.19 -17.10 -17.00 -16.91 -16.82 -16.72 -16.60 -16.51 -16.29 -16.11 -15.94 -15.82 -15.70 -15.52 -15.47 -15.36 -15.28 -15.15 -15.05 -14.96 -14.85 -14.79 -14.73 -14.67 -14.61 -14.55 -14.49 -14.42 -14.36 -14.32 -14.28 -14.24 -14.14 -14.11 -14.08 -14.07 -14.06 -14.03 -14.00 -13.96 -13.91 -13.87 -13.83 -13.85 -13.86 -13.84 -13.88 -13.87 -13.85 -13.82 -13.79 -13.75 -13.74 -13.75 -13.67 -13.62 -13.59 -13.53 -13.48 -13.43 -13.38 -13.32 -13.26 -13.20 -13.14 -13.09 -13.03 -12.96 -12.91 -12.84 -12.81 -12.76 -12.70 -12.69 -12.68 -12.72 -12.70 -12.68 -12.67 -12.67 -12.66 -12.64 -12.58 -12.55 -12.52 -12.47 -12.43 -12.38 -12.31 -12.28 -12.29 -12.25 -12.23 -12.22 -12.26 -12.32 -12.31 -12.20 -12.10 -12.02 -11.97 -11.86 -11.76 -11.65 -11.53 -11.38 -11.26 -11.11 -10.98 -10.93 -10.91 -10.94 -10.95 -10.90 -10.90 -10.90 -10.86 -10.77 -10.67 -10.59 -10.49 -10.49 -10.54 -10.57 -10.57 -10.44 -10.45 -10.48 -10.49 -10.48 -10.50 -10.53 -10.53 -10.52 -10.51 -10.39 -10.37 -10.36 -10.30 -10.22 -10.16 -10.11 -10.05 -10.02 -9.97 -9.93 -9.90 -9.86 -9.83 -9.81 -9.78 -9.78 -9.78 -9.77 -9.70 -9.67 -9.65 -9.60 -9.57 -9.52 -9.48 -9.40 -9.36 -9.36 -9.36 -9.38 -9.37 -9.38 -9.29 -9.19 -9.12 -9.12 -9.08 -9.09 -9.10 -9.15 -9.15 -9.14 -9.12 -9.12 -9.10 -9.11 -9.10 -9.06 -8.99 -8.94 -8.89 -8.91 -8.85 -8.81 -8.68 -8.60 -8.52 -8.42 -8.30 -8.21 -8.17 -8.15 -8.13 -8.06 -7.99 -7.97 -8.04 -8.10 -8.18 -8.24 -8.28 -8.31 -8.34 -8.36 -8.37 -8.30 -8.23 -8.18 -8.15 -8.09 -8.05 -8.02 -8.00 -7.97 -7.96 -7.89 -7.78 -7.67 -7.56 -7.48 -7.40 -7.32 -7.24 -7.16 -7.08 -7.08 -7.10 -7.13 -7.14 -7.16 -7.17 -7.19 -7.19 -7.21 -7.24 -7.28 -7.32 -7.35 -7.39
-9999.00 -9999.00 -9999.00 -9999.00 -9999.00 -9999.00 -9999.00 -9999.00 -9999.00 -9999.00 -9999.00 -9999.00 -9999.00 -9999.00 -9999.00 -9999.00 -9999.00 -9999.00 -9999.00 -9999.00 -9999.00 -9999.00 -9999.00 -9999.00 -9999.00 -9999.00 -9999.00 -9999.00 -9999.00 -9999.00 -9999.00 -9999.00 -9999.00 -9999.00 -9999.00 -9999.00 -9999.00 -9999.00 -9999.00 -9999.00 -9999.00 -9999.00 -9999.00 -9999.00 -9999.00 -9999.00 -9999.00 -9999.00 -9999.00 -9999.00 -9999.00 -9999.00 -9999.00 -9999.00 -9999.00 -9999.00 -9999.00 -9999.00 -9999.00 -9999.00 -9999.00 -9999.00 -9999.00 -9999.00 -9999.00 -9999.00 -9999.00 -9999.00 -9999.00 -9999.00 -9999.00 -9999.00 -9999.00 -9999.00 -9999.00 -9999.00 -9999.00 -9999.00 -9999.00 -9999.00 -9999.00 -9999.00 -9999.00 -9999.00 -9999.00 -9999.00 -9999.00 -9999.00 -9999.00 -9999.00 -9999.00 -9999.00 -9999.00 -9999.00 -9999.00 -9999.00 -9999.00 -9999.00 -9999.00 -21.34 -21.28 -21.22 -21.15 -21.12 -21.07 -21.01 -20.98 -20.82 -20.72 -20.62 -20.49 -20.33 -20.17 -20.02 -19.88 -19.71 -19.57 -19.41 -19.26 -19.08 -18.88 -18.67 -18.47 -18.26 -18.06 -17.85 -17.71 -17.60 -17.50 -17.37 -17.20 -17.03 -16.93 -16.83 -16.74 -16.64 -16.55 -16.44 -16.38 -16.16 -15.98 -15.82 -15.70 -15.59 -15.46 -15.41 -15.31 -15.21 -15.08 -14.98 -14.86 -14.74 -14.66 -14.60 -14.54 -14.48 -14.42 -14.36 -14.29 -14.24 -14.20 -14.14 -14.10 -14.02 -13.98 -13.96 -13.99 -13.94 -13.98 -13.92 -13.88 -13.83 -13.77 -13.76 -13.76 -13.74 -13.79 -13.81 -13.79 -13.76 -13.73 -13.70 -13.67 -13.68 -13.68 -13.59 -13.57 -13.51 -13.46 -13.41 -13.39 -13.33 -13.27 -13.22 -13.16 -13.11 -13.05 -12.99 -12.93 -12.87 -12.80 -12.77 -12.71 -12.66 -12.65 -12.65 -12.64 -12.65 -12.61 -12.59 -12.60 -12.58 -12.54 -12.51 -12.49 -12.46 -12.41 -12.38 -12.32 -12.29 -12.25 -12.18 -12.11 -12.08 -12.07 -12.08 -12.10 -12.11 -12.07 -12.06 -12.00 -11.92 -11.81 -11.70 -11.55 -11.46 -11.34 -11.23 -11.11 -10.93 -10.79 -10.84 -10.86 -10.85 -10.82 -10.82 -10.84 -10.87 -10.87 -10.81 -10.71 -10.59 -10.58 -10.59 -10.62 -10.52 -10.45 -10.44 -10.39 -10.41 -10.38 -10.38 -10.39 -10.43 -10.39 -10.34 -10.30 -10.27 -10.27 -10.18 -10.14 -10.07 -10.01 -9.96 -9.92 -9.89 -9.85 -9.79 -9.76 -9.69 -9.70 -9.69 -9.67 -9.66 -9.64 -9.64 -9.61 -9.56 -9.53 -9.52 -9.46 -9.42 -9.42 -9.35 -9.26 -9.24 -9.25 -9.28 -9.27 -9.16 -9.15 -9.13 -9.09 -9.08 -9.09 -9.12 -9.12 -9.12 -9.12 -9.04 -9.05 -9.03 -8.95 -8.95 -8.98 -8.98 -8.98 -8.97 -8.95 -8.85 -8.77 -8.67 -8.59 -8.44 -8.32 -8.21 -8.05 -7.91 -7.87 -7.87 -7.83 -7.79 -7.79 -7.81 -7.86 -7.95 -8.00 -8.02 -8.08 -8.17 -8.21 -8.23 -8.26 -8.18 -8.12 -8.06 -7.99 -7.94 -7.91 -7.90 -7.90 -7.89 -7.89 -7.82 -7.77 -7.69 -7.56 -7.49 -7.39 -7.31 -7.23 -7.16 -7.08 -7.03 -7.03 -7.01 -6.99 -6.99 -7.01 -7.03 -7.11 -7.17 -7.22 -7.25 -7.29 -7.32 -7.35
-9999.00 -9999.00 -9999.00 -9999.00 -9999.00 -9999.00 -9999.00 -9999.00 -9999.00 -9999.00 -9999.00 -9999.00 -9999.00 -9999.00 -9999.00 -9999.00 -9999.00 -9999.00 -9999.00 -9999.00 -9999.00 -9999.00 -9999.00 -9999.00 -9999.00 -9999.00 -9999.00 -9999.00 -9999.00 -9999.00 -9999.00 -9999.00 -9999.00 -9999.00 -9999.00 -9999.00 -9999.00 -9999.00 -9999.00 -9999.00 -9999.00 -9999.00 -9999.00 -9999.00 -9999.00 -9999.00 -9999.00 -9999.00 -9999.00 -9999.00 -9999.00 -9999.00 -9999.00 -9999.00 -9999.00 -9999.00 -9999.00 -9999.00 -9999.00 -9999.00 -9999.00 -9999.00 -9999.00 -9999.00 -9999.00 -9999.00 -9999.00 -9999.00 -9999.00 -9999.00 -9999.00 -9999.00 -9999.00 -9999.00 -9999.00 -9999.00 -9999.00 -9999.00 -9999.00 -9999.00 -9999.00 -9999.00 -9999.00 -9999.00 -9999.00 -9999.00 -9999.00 -9999.00 -9999.00 -9999.00 -9999.00 -9999.00 -9999.00 -9999.00 -9999.00 -9999.00 -9999.00 -9999.00 -21.35 -21.28 -21.22 -21.18 -21.12 -21.08 -21.03 -20.97 -20.90 -20.81 -20.71 -20.58 -20.43 -20.27 -20.13 -19.99 -19.81 -19.65 -19.50 -19.33 -19.15 -18.94 -18.74 -18.53 -18.31 -18.11 -17.91 -17.66 -17.49 -17.38 -17.25 -17.09 -16.92 -16.74 -16.57 -16.57 -16.47 -16.38 -16.26 -16.24 -16.01 -15.85 -15.70 -15.59 -15.45 -15.35 -15.29 -15.19 -15.07 -14.98 -14.89 -14.76 -14.68 -14.57 -14.49 -14.41 -14.35 -14.29 -14.23 -14.15 -14.13 -14.07 -14.01 -13.96 -13.90 -13.87 -13.84 -13.86 -13.89 -13.89 -13.83 -13.78 -13.73 -13.70 -13.68 -13.66 -13.69 -13.74 -13.74 -13.70 -13.68 -13.62 -13.59 -13.59 -13.62 -13.56 -13.57 -13.49 -13.43 -13.40 -13.36 -13.32 -13.27 -13.22 -13.16 -13.09 -13.04 -13.00 -12.95 -12.89 -12.83 -12.78 -12.75 -12.68 -12.66 -12.63 -12.62 -12.57 -12.57 -12.55 -12.52 -12.52 -12.50 -12.48 -12.46 -12.43 -12.40 -12.35 -12.31 -12.27 -12.24 -12.17 -12.10 -12.04 -11.98 -11.90 -11.94 -11.89 -11.90 -11.90 -11.95 -11.99 -11.84 -11.74 -11.63 -11.53 -11.42 -11.31 -11.18 -11.05 -10.90 -10.81 -10.79 -10.80 -10.78 -10.76 -10.78 -10.82 -10.80 -10.84 -10.86 -10.81 -10.75 -10.65 -10.56 -10.59 -10.51 -10.49 -10.41 -10.36 -10.31 -10.33 -10.31 -10.31 -10.32 -10.30 -10.25 -10.21 -10.19 -10.14 -10.07 -10.01 -9.95 -9.91 -9.86 -9.80 -9.77 -9.74 -9.72 -9.66 -9.63 -9.57 -9.55 -9.54 -9.54 -9.53 -9.52 -9.48 -9.40 -9.41 -9.40 -9.36 -9.33 -9.33 -9.27 -9.31 -9.23 -9.22 -9.20 -9.24 -9.23 -9.19 -9.10 -9.00 -9.03 -9.04 -9.05 -9.06 -9.06 -9.09 -9.01 -8.96 -8.89 -8.84 -8.84 -8.83 -8.87 -8.89 -8.86 -8.83 -8.76 -8.71 -8.64 -8.56 -8.41 -8.24 -8.10 -7.99 -7.88 -7.73 -7.64 -7.63 -7.60 -7.62 -7.66 -7.76 -7.80 -7.84 -7.85 -7.92 -7.98 -7.99 -8.04 -8.06 -8.03 -7.98 -7.93 -7.88 -7.83 -7.80 -7.77 -7.77 -7.80 -7.83 -7.86 -7.81 -7.72 -7.64 -7.56 -7.47 -7.38 -7.28 -7.21 -7.11 -7.02 -6.98 -6.97 -6.93 -6.90 -6.91 -6.98 -7.05 -7.10 -7.15 -7.20 -7.22 -7.23 -7.24 -7.26
-9999.00 -9999.00 -9999.00 -9999.00 -9999.00 -9999.00 -9999.00 -9999.00 -9999.00 -9999.00 -9999.00 -9999.00 -9999.00 -9999.00 -9999.00 -9999.00 -9999.00 -9999.00 -9999.00 -9999.00 -9999.00 -9999.00 -9999.00 -9999.00 -9999.00 -9999.00 -9999.00 -9999.00 -9999.00 -9999.00 -9999.00 -9999.00 -9999.00 -9999.00 -9999.00 -9999.00 -9999.00 -9999.00 -9999.00 -9999.00 -9999.00 -9999.00 -9999.00 -9999.00 -9999.00 -9999.00 -9999.00 -9999.00 -9999.00 -9999.00 -9999.00 -9999.00 -9999.00 -9999.00 -9999.00 -9999.00 -9999.00 -9999.00 -9999.00 -9999.00 -9999.00 -9999.00 -9999.00 -9999.00 -9999.00 -9999.00 -9999.00 -9999.00 -9999.00 -9999.00 -9999.00 -9999.00 -9999.00 -9999.00 -9999.00 -9999.00 -9999.00 -9999.00 -9999.00 -9999.00 -9999.00 -9999.00 -9999.00 -9999.00 -9999.00 -9999.00 -9999.00 -9999.00 -9999.00 -9999.00 -9999.00 -9999.00 -9999.00 -9999.00 -9999.00 -9999.00 -9999.00 -21.35 -21.29 -21.23 -21.17 -21.13 -21.09 -21.03 -20.96 -20.90 -20.80 -20.75 -20.66 -20.53 -20.38 -20.24 -20.09 -19.90 -19.75 -19.60 -19.42 -19.21 -19.01 -18.81 -18.57 -18.36 -18.16 -17.93 -17.62 -17.45 -17.30 -17.14 -16.98 -16.81 -16.62 -16.47 -16.43 -16.30 -16.21 -16.10 -16.07 -15.87 -15.72 -15.59 -15.46 -15.33 -15.22 -15.16 -15.05 -14.95 -14.88 -14.79 -14.69 -14.61 -14.52 -14.43 -14.33 -14.23 -14.17 -14.10 -14.03 -14.00 -13.94 -13.91 -13.82 -13.79 -13.75 -13.74 -13.75 -13.79 -13.80 -13.72 -13.69 -13.66 -13.64 -13.64 -13.61 -13.65 -13.68 -13.65 -13.63 -13.54 -13.51 -13.49 -13.48 -13.46 -13.47 -13.43 -13.41 -13.37 -13.34 -13.31 -13.26 -13.21 -13.17 -13.10 -13.06 -12.98 -12.93 -12.88 -12.84 -12.80 -12.78 -12.71 -12.65 -12.63 -12.60 -12.53 -12.51 -12.55 -12.50 -12.48 -12.47 -12.45 -12.43 -12.38 -12.37 -12.34 -12.32 -12.26 -12.21 -12.16 -12.10 -12.04 -11.99 -11.91 -11.86 -11.74 -11.73 -11.72 -11.73 -11.77 -11.74 -11.74 -11.69 -11.61 -11.49 -11.36 -11.24 -11.14 -11.03 -10.95 -10.89 -10.89 -10.81 -10.71 -10.71 -10.73 -10.73 -10.84 -10.81 -10.78 -10.78 -10.77 -10.69 -10.61 -10.54 -10.48 -10.48 -10.39 -10.32 -10.30 -10.28 -10.26 -10.25 -10.23 -10.22 -10.17 -10.14 -10.09 -10.04 -9.96 -9.88 -9.82 -9.78 -9.72 -9.67 -9.63 -9.61 -9.59 -9.58 -9.57 -9.51 -9.48 -9.49 -9.46 -9.42 -9.40 -9.36 -9.34 -9.34 -9.29 -9.28 -9.26 -9.21 -9.23 -9.18 -9.20 -9.14 -9.12 -9.11 -9.15 -9.17 -9.05 -9.02 -8.87 -8.91 -8.93 -8.98 -9.00 -8.99 -8.92 -8.88 -8.81 -8.78 -8.84 -8.72 -8.78 -8.78 -8.79 -8.74 -8.71 -8.69 -8.66 -8.53 -8.39 -8.26 -8.14 -8.01 -7.88 -7.75 -7.66 -7.61 -7.58 -7.56 -7.56 -7.61 -7.69 -7.73 -7.77 -7.81 -7.81 -7.85 -7.86 -7.88 -7.85 -7.82 -7.77 -7.70 -7.65 -7.60 -7.57 -7.53 -7.53 -7.57 -7.62 -7.67 -7.62 -7.55 -7.48 -7.42 -7.38 -7.28 -7.25 -7.24 -7.14 -7.07 -7.02 -7.01 -7.01 -7.00 -7.00 -7.01 -7.03 -7.08 -7.12 -7.16 -7.14 -7.13 -7.12 -7.11
-9999.00 -9999.00 -9999.00 -9999.00 -9999.00 -9999.00 -9999.00 -9999.00 -9999.00 -9999.00 -9999.00 -9999.00 -9999.00 -9999.00 -9999.00 -9999.00 -9999.00 -9999.00 -9999.00 -9999.00 -9999.00 -9999.00 -9999.00 -9999.00 -9999.00 -9999.00 -9999.00 -9999.00 -9999.00 -9999.00 -9999.00 -9999.00 -9999.00 -9999.00 -9999.00 -9999.00 -9999.00 -9999.00 -9999.00 -9999.00 -9999.00 -9999.00 -9999.00 -9999.00 -9999.00 -9999.00 -9999.00 -9999.00 -9999.00 -9999.00 -9999.00 -9999.00 -9999.00 -9999.00 -9999.00 -9999.00 -9999.00 -9999.00 -9999.00 -9999.00 -9999.00 -9999.00 -9999.00 -9999.00 -9999.00 -9999.00 -9999.00 -9999.00 -9999.00 -9999.00 -9999.00 -9999.00 -9999.00 -9999.00 -9999.00 -9999.00 -9999.00 -9999.00 -9999.00 -9999.00 -9999.00 -9999.00 -9999.00 -9999.00 -9999.00 -9999.00 -9999.00 -9999.00 -9999.00 -9999.00 -9999.00 -9999.00 -9999.00 -9999.00 -9999.00 -9999.00 -21.36 -21.29 -21.21 -21.18 -21.15 -21.09 -21.02 -20.95 -20.89 -20.79 -20.74 -20.66 -20.57 -20.49 -20.35 -20.20 -20.00 -19.84 -19.66 -19.48 -19.27 -19.06 -18.85 -18.62 -18.42 -18.19 -17.89 -17.57 -17.40 -17.24 -17.08 -16.90 -16.69 -16.50 -16.40 -16.31 -16.16 -15.99 -15.90 -15.82 -15.76 -15.59 -15.47 -15.31 -15.20 -15.10 -15.04 -14.91 -14.85 -14.76 -14.70 -14.62 -14.56 -14.46 -14.37 -14.25 -14.15 -14.04 -13.94 -13.91 -13.89 -13.82 -13.77 -13.70 -13.67 -13.64 -13.65 -13.66 -13.69 -13.70 -13.66 -13.62 -13.58 -13.58 -13.56 -13.56 -13.57 -13.59 -13.57 -13.46 -13.42 -13.39 -13.38 -13.35 -13.35 -13.32 -13.33 -13.30 -13.32 -13.29 -13.26 -13.21 -13.18 -13.13 -13.08 -13.04 -12.99 -12.91 -12.85 -12.81 -12.78 -12.72 -12.68 -12.62 -12.57 -12.55 -12.47 -12.45 -12.42 -12.43 -12.44 -12.40 -12.41 -12.39 -12.33 -12.32 -12.29 -12.24 -12.20 -12.15 -12.09 -12.02 -11.98 -11.93 -11.84 -11.75 -11.69 -11.61 -11.54 -11.57 -11.59 -11.60 -11.59 -11.59 -11.55 -11.42 -11.32 -11.21 -11.12 -11.06 -11.03 -10.97 -10.91 -10.85 -10.77 -10.72 -10.74 -10.73 -10.76 -10.72 -10.70 -10.69 -10.67 -10.64 -10.57 -10.52 -10.47 -10.41 -10.36 -10.32 -10.31 -10.25 -10.18 -10.17 -10.15 -10.10 -10.06 -10.01 -9.97 -9.97 -9.88 -9.77 -9.71 -9.63 -9.58 -9.52 -9.53 -9.45 -9.45 -9.46 -9.47 -9.45 -9.44 -9.40 -9.39 -9.35 -9.31 -9.28 -9.25 -9.24 -9.20 -9.20 -9.18 -9.17 -9.11 -9.04 -9.05 -9.08 -8.91 -8.97 -9.01 -9.00 -8.96 -9.00 -8.90 -8.82 -8.85 -8.83 -8.83 -8.83 -8.82 -8.83 -8.75 -8.77 -8.74 -8.68 -8.62 -8.64 -8.66 -8.64 -8.61 -8.57 -8.51 -8.46 -8.40 -8.29 -8.14 -8.06 -7.97 -7.85 -7.77 -7.67 -7.63 -7.61 -7.56 -7.52 -7.58 -7.62 -7.65 -7.65 -7.68 -7.71 -7.73 -7.74 -7.74 -7.69 -7.65 -7.57 -7.48 -7.42 -7.36 -7.34 -7.32 -7.32 -7.33 -7.36 -7.38 -7.39 -7.38 -7.38 -7.35 -7.30 -7.26 -7.22 -7.16 -7.09 -7.07 -7.05 -7.04 -7.04 -7.04 -7.02 -7.01 -7.01 -7.03 -7.04 -7.04 -7.04 -7.05 -7.06 -7.07
-9999.00 -9999.00 -9999.00 -9999.00 -9999.00 -9999.00 -9999.00 -9999.00 -9999.00 -9999.00 -9999.00 -9999.00 -9999.00 -9999.00 -9999.00 -9999.00 -9999.00 -9999.00 -9999.00 -9999.00 -9999.00 -9999.00 -9999.00 -9999.00 -9999.00 -9999.00 -9999.00 -9999.00 -9999.00 -9999.00 -9999.00 -9999.00 -9999.00 -9999.00 -9999.00 -9999.00 -9999.00 -9999.00 -9999.00 -9999.00 -9999.00 -9999.00 -9999.00 -9999.00 -9999.00 -9999.00 -9999.00 -9999.00 -9999.00 -9999.00 -9999.00 -9999.00 -9999.00 -9999.00 -9999.00 -9999.00 -9999.00 -9999.00 -9999.00 -9999.00 -9999.00 -9999.00 -9999.00 -9999.00 -9999.00 -9999.00 -9999.00 -9999.00 -9999.00 -9999.00 -9999.00 -9999.00 -9999.00 -9999.00 -9999.00 -9999.00 -9999.00 -9999.00 -9999.00 -9999.00 -9999.00 -9999.00 -9999.00 -9999.00 -9999.00 -9999.00 -9999.00 -9999.00 -9999.00 -9999.00 -9999.00 -9999.00 -9999.00 -9999.00 -9999.00 -21.34 -21.26 -21.23 -21.21 -21.14 -21.08 -21.02 -20.94 -20.88 -20.78 -20.74 -20.65 -20.57 -20.50 -20.40 -20.30 -20.09 -19.93 -19.75 -19.54 -19.33 -19.13 -18.89 -18.67 -18.44 -18.16 -17.84 -17.53 -17.35 -17.20 -17.02 -16.83 -16.62 -16.43 -16.26 -16.16 -16.02 -15.89 -15.79 -15.66 -15.57 -15.43 -15.31 -15.18 -15.08 -14.97 -14.91 -14.80 -14.73 -14.66 -14.58 -14.52 -14.47 -14.39 -14.31 -14.21 -14.11 -13.99 -13.85 -13.82 -13.76 -13.69 -13.64 -13.58 -13.56 -13.53 -13.54 -13.57 -13.59 -13.60 -13.57 -13.54 -13.54 -13.53 -13.50 -13.49 -13.50 -13.49 -13.46 -13.38 -13.31 -13.27 -13.25 -13.23 -13.22 -13.24 -13.23 -13.23 -13.22 -13.21 -13.20 -13.16 -13.12 -13.09 -13.06 -13.02 -12.98 -12.90 -12.85 -12.79 -12.72 -12.69 -12.64 -12.57 -12.56 -12.49 -12.43 -12.38 -12.35 -12.34 -12.34 -12.35 -12.33 -12.34 -12.32 -12.25 -12.22 -12.17 -12.13 -12.08 -12.01 -11.96 -11.89 -11.85 -11.76 -11.69 -11.60 -11.53 -11.47 -11.40 -11.43 -11.48 -11.46 -11.45 -11.40 -11.33 -11.30 -11.19 -11.13 -11.07 -11.02 -10.95 -10.90 -10.87 -10.83 -10.76 -10.70 -10.62 -10.62 -10.61 -10.60 -10.61 -10.59 -10.54 -10.50 -10.44 -10.43 -10.43 -10.37 -10.36 -10.29 -10.23 -10.18 -10.09 -10.06 -10.02 -9.97 -9.90 -9.83 -9.77 -9.70 -9.65 -9.59 -9.50 -9.42 -9.36 -9.32 -9.29 -9.29 -9.27 -9.23 -9.32 -9.34 -9.36 -9.33 -9.28 -9.23 -9.19 -9.18 -9.15 -9.15 -9.14 -9.11 -9.09 -9.04 -8.99 -8.97 -8.97 -8.95 -8.93 -8.88 -8.87 -8.96 -8.92 -8.97 -8.86 -8.79 -8.74 -8.76 -8.72 -8.74 -8.75 -8.77 -8.70 -8.65 -8.59 -8.50 -8.52 -8.52 -8.52 -8.53 -8.44 -8.39 -8.33 -8.27 -8.17 -8.07 -8.01 -7.95 -7.89 -7.80 -7.73 -7.71 -7.67 -7.63 -7.62 -7.60 -7.61 -7.61 -7.59 -7.62 -7.62 -7.60 -7.60 -7.61 -7.60 -7.50 -7.39 -7.32 -7.28 -7.24 -7.20 -7.17 -7.17 -7.19 -7.21 -7.24 -7.29 -7.28 -7.25 -7.23 -7.22 -7.17 -7.14 -7.11 -7.11 -7.17 -7.21 -7.24 -7.19 -7.15 -7.12 -7.04 -6.97 -6.94 -6.95 -6.96 -6.96 -6.96 -6.96 -6.95 -6.94
-9999.00 -9999.00 -9999.00 -9999.00 -9999.00 -9999.00 -9999.00 -9999.00 -9999.00 -9999.00 -9999.00 -9999.00 -9999.00 -9999.00 -9999.00 -9999.00 -9999.00 -9999.00 -9999.00 -9999.00 -9999.00 -9999.00 -9999.00 -9999.00 -9999.00 -9999.00 -9999.00 -9999.00 -9999.00 -9999.00 -9999.00 -9999.00 -9999.00 -9999.00 -9999.00 -9999.00 -9999.00 -9999.00 -9999.00 -9999.00 -9999.00 -9999.00 -9999.00 -9999.00 -9999.00 -9999.00 -9999.00 -9999.00 -9999.00 -9999.00 -9999.00 -9999.00 -9999.00 -9999.00 -9999.00 -9999.00 -9999.00 -9999.00 -9999.00 -9999.00 -9999.00 -9999.00 -9999.00 -9999.00 -9999.00 -9999.00 -9999.00 -9999.00 -9999.00 -9999.00 -9999.00 -9999.00 -9999.00 -9999.00 -9999.00 -9999.00 -9999.00 -9999.00 -9999.00 -9999.00 -9999.00 -9999.00 -9999.00 -9999.00 -9999.00 -9999.00 -9999.00 -9999.00 -9999.00 -9999.00 -9999.00 -9999.00 -9999.00 -9999.00 -21.30 -21.29 -21.27 -21.20 -21.14 -21.08 -21.02 -20.92 -20.88 -20.77 -20.73 -20.65 -20.56 -20.50 -20.39 -20.29 -20.16 -19.99 -19.82 -19.61 -19.41 -19.16 -18.93 -18.70 -18.42 -18.11 -17.80 -17.48 -17.30 -17.14 -16.95 -16.76 -16.56 -16.37 -16.22 -16.04 -15.89 -15.80 -15.70 -15.57 -15.46 -15.35 -15.24 -15.10 -14.96 -14.85 -14.76 -14.73 -14.62 -14.54 -14.46 -14.41 -14.34 -14.29 -14.23 -14.16 -14.06 -13.95 -13.83 -13.76 -13.65 -13.56 -13.50 -13.47 -13.44 -13.43 -13.44 -13.48 -13.50 -13.49 -13.48 -13.45 -13.47 -13.48 -13.43 -13.43 -13.41 -13.40 -13.35 -13.31 -13.27 -13.20 -13.13 -13.12 -13.15 -13.15 -13.14 -13.15 -13.13 -13.13 -13.12 -13.15 -13.10 -13.08 -13.05 -13.01 -12.97 -12.91 -12.85 -12.77 -12.71 -12.65 -12.58 -12.56 -12.50 -12.44 -12.39 -12.33 -12.29 -12.29 -12.26 -12.25 -12.26 -12.25 -12.23 -12.22 -12.16 -12.09 -12.07 -12.01 -11.93 -11.85 -11.85 -11.79 -11.70 -11.63 -11.54 -11.50 -11.44 -11.41 -11.32 -11.34 -11.34 -11.34 -11.27 -11.22 -11.21 -11.16 -11.10 -11.03 -10.97 -10.93 -10.89 -10.87 -10.84 -10.79 -10.71 -10.68 -10.51 -10.53 -10.51 -10.56 -10.52 -10.47 -10.46 -10.42 -10.38 -10.39 -10.35 -10.30 -10.25 -10.21 -10.15 -10.08 -9.99 -9.93 -9.83 -9.74 -9.70 -9.65 -9.56 -9.44 -9.42 -9.37 -9.29 -9.17 -9.07 -9.01 -9.00 -9.05 -9.03 -9.11 -9.19 -9.23 -9.21 -9.17 -9.17 -9.13 -9.07 -9.05 -9.01 -8.99 -9.07 -9.06 -9.00 -8.93 -8.89 -8.94 -8.98 -8.94 -8.84 -8.83 -8.84 -8.83 -8.79 -8.76 -8.72 -8.67 -8.60 -8.64 -8.67 -8.65 -8.63 -8.60 -8.56 -8.52 -8.39 -8.37 -8.39 -8.38 -8.37 -8.33 -8.31 -8.24 -8.16 -8.11 -8.01 -7.92 -7.85 -7.81 -7.75 -7.72 -7.68 -7.70 -7.73 -7.70 -7.68 -7.66 -7.65 -7.62 -7.58 -7.56 -7.55 -7.52 -7.51 -7.50 -7.45 -7.33 -7.21 -7.12 -7.09 -7.03 -6.93 -6.92 -7.01 -7.08 -7.15 -7.23 -7.30 -7.30 -7.27 -7.24 -7.17 -7.13 -7.09 -7.08 -7.09 -7.14 -7.21 -7.27 -7.24 -7.22 -7.19 -7.09 -6.97 -6.88 -6.87 -6.86 -6.85 -6.86 -6.86 -6.85 -6.85
-9999.00 -9999.00 -9999.00 -9999.00 -9999.00 -9999.00 -9999.00 -9999.00 -9999.00 -9999.00 -9999.00 -9999.00 -9999.00 -9999.00 -9999.00 -9999.00 -9999.00 -9999.00 -9999.00 -9999.00 -9999.00 -9999.00 -9999.00 -9999.00 -9999.00 -9999.00 -9999.00 -9999.00 -9999.00 -9999.00 -9999.00 -9999.00 -9999.00 -9999.00 -9999.00 -9999.00 -9999.00 -9999.00 -9999.00 -9999.00 -9999.00 -9999.00 -9999.00 -9999.00 -9999.00 -9999.00 -9999.00 -9999.00 -9999.00 -9999.00 -9999.00 -9999.00 -9999.00 -9999.00 -9999.00 -9999.00 -9999.00 -9999.00 -9999.00 -9999.00 -9999.00 -9999.00 -9999.00 -9999.00 -9999.00 -9999.00 -9999.00 -9999.00 -9999.00 -9999.00 -9999.00 -9999.00 -9999.00 -9999.00 -9999.00 -9999.00 -9999.00 -9999.00 -9999.00 -9999.00 -9999.00 -9999.00 -9999.00 -9999.00 -9999.00 -9999.00 -9999.00 -9999.00 -9999.00 -9999.00 -9999.00 -9999.00 -9999.00 -21.34 -21.33 -21.26 -21.20 -21.14 -21.08 -21.02 -20.91 -20.87 -20.77 -20.73 -20.64 -20.56 -20.49 -20.38 -20.28 -20.15 -20.00 -19.85 -19.67 -19.44 -19.19 -18.96 -18.68 -18.38 -18.06 -17.75 -17.44 -17.25 -17.09 -16.89 -16.69 -16.50 -16.34 -16.15 -15.96 -15.80 -15.71 -15.61 -15.47 -15.36 -15.25 -15.13 -14.99 -14.90 -14.78 -14.66 -14.58 -14.50 -14.42 -14.35 -14.30 -14.23 -14.19 -14.13 -14.08 -14.00 -13.93 -13.81 -13.71 -13.60 -13.51 -13.40 -13.36 -13.32 -13.33 -13.35 -13.39 -13.40 -13.40 -13.39 -13.39 -13.39 -13.38 -13.36 -13.38 -13.36 -13.32 -13.30 -13.26 -13.21 -13.14 -13.08 -13.08 -13.08 -13.05 -13.08 -13.04 -13.05 -13.03 -13.06 -13.09 -13.12 -13.07 -13.03 -12.99 -12.95 -12.91 -12.85 -12.78 -12.73 -12.68 -12.58 -12.53 -12.47 -12.41 -12.35 -12.28 -12.23 -12.19 -12.18 -12.14 -12.15 -12.16 -12.15 -12.13 -12.07 -12.05 -11.99 -11.90 -11.83 -11.79 -11.75 -11.70 -11.63 -11.54 -11.46 -11.44 -11.45 -11.38 -11.34 -11.25 -11.24 -11.27 -11.20 -11.15 -11.12 -11.06 -11.04 -10.99 -10.90 -10.87 -10.83 -10.76 -10.77 -10.73 -10.68 -10.66 -10.60 -10.47 -10.45 -10.40 -10.41 -10.35 -10.26 -10.17 -10.22 -10.20 -10.15 -10.11 -10.10 -10.03 -10.00 -9.86 -9.78 -9.77 -9.65 -9.59 -9.57 -9.50 -9.40 -9.32 -9.24 -9.15 -9.07 -8.88 -8.69 -8.56 -8.73 -8.80 -8.81 -8.78 -8.79 -8.82 -9.01 -9.01 -8.93 -8.97 -8.91 -8.87 -8.83 -8.86 -8.89 -8.88 -8.81 -8.77 -8.80 -8.76 -8.76 -8.84 -8.83 -8.78 -8.72 -8.72 -8.67 -8.60 -8.61 -8.66 -8.55 -8.55 -8.52 -8.50 -8.48 -8.45 -8.43 -8.38 -8.32 -8.26 -8.28 -8.24 -8.23 -8.22 -8.20 -8.13 -8.06 -7.98 -7.90 -7.81 -7.72 -7.62 -7.59 -7.58 -7.66 -7.67 -7.72 -7.75 -7.73 -7.72 -7.69 -7.65 -7.58 -7.53 -7.53 -7.49 -7.48 -7.44 -7.38 -7.30 -7.14 -6.99 -6.88 -6.85 -6.80 -6.75 -6.83 -6.96 -7.06 -7.13 -7.20 -7.27 -7.22 -7.16 -7.14 -7.14 -7.12 -7.10 -7.10 -7.10 -7.12 -7.15 -7.19 -7.19 -7.19 -7.19 -7.03 -6.88 -6.74 -6.76 -6.77 -6.79 -6.80 -6.81 -6.80 -6.80
-9999.00 -9999.00 -9999.00 -9999.00 -9999.00 -9999.00 -9999.00 -9999.00 -9999.00 -9999.00 -9999.00 -9999.00 -9999.00 -9999.00 -9999.00 -9999.00 -9999.00 -9999.00 -9999.00 -9999.00 -9999.00 -9999.00 -9999.00 -9999.00 -9999.00 -9999.00 -9999.00 -9999.00 -9999.00 -9999.00 -9999.00 -9999.00 -9999.00 -9999.00 -9999.00 -9999.00 -9999.00 -9999.00 -9999.00 -9999.00 -9999.00 -9999.00 -9999.00 -9999.00 -9999.00 -9999.00 -9999.00 -9999.00 -9999.00 -9999.00 -9999.00 -9999.00 -9999.00 -9999.00 -9999.00 -9999.00 -9999.00 -9999.00 -9999.00 -9999.00 -9999.00 -9999.00 -9999.00 -9999.00 -9999.00 -9999.00 -9999.00 -9999.00 -9999.00 -9999.00 -9999.00 -9999.00 -9999.00 -9999.00 -9999.00 -9999.00 -9999.00 -9999.00 -9999.00 -9999.00 -9999.00 -9999.00 -9999.00 -9999.00 -9999.00 -9999.00 -9999.00 -9999.00 -9999.00 -9999.00 -9999.00 -9999.00 -21.39 -21.36 -21.26 -21.20 -21.14 -21.08 -21.02 -20.90 -20.86 -20.77 -20.72 -20.64 -20.56 -20.47 -20.37 -20.27 -20.13 -19.98 -19.83 -19.69 -19.47 -19.22 -18.94 -18.65 -18.33 -18.02 -17.71 -17.40 -17.21 -17.02 -16.83 -16.63 -16.45 -16.26 -16.07 -15.88 -15.73 -15.63 -15.51 -15.39 -15.26 -15.16 -15.03 -14.91 -14.82 -14.73 -14.61 -14.49 -14.39 -14.31 -14.24 -14.17 -14.14 -14.08 -14.03 -13.99 -13.92 -13.85 -13.78 -13.68 -13.56 -13.47 -13.37 -13.29 -13.20 -13.23 -13.27 -13.29 -13.29 -13.31 -13.30 -13.31 -13.32 -13.28 -13.29 -13.31 -13.32 -13.30 -13.25 -13.21 -13.13 -13.08 -13.06 -13.05 -13.02 -13.01 -12.96 -12.95 -12.94 -12.96 -13.00 -13.03 -13.06 -13.09 -13.03 -13.01 -12.97 -12.90 -12.84 -12.81 -12.75 -12.73 -12.63 -12.56 -12.44 -12.38 -12.32 -12.24 -12.15 -12.11 -12.07 -12.02 -12.04 -12.04 -12.06 -12.04 -12.02 -11.96 -11.91 -11.82 -11.74 -11.70 -11.66 -11.60 -11.54 -11.48 -11.40 -11.40 -11.35 -11.35 -11.35 -11.28 -11.26 -11.22 -11.15 -11.12 -11.03 -10.99 -10.92 -10.84 -10.83 -10.74 -10.58 -10.51 -10.51 -10.50 -10.51 -10.40 -10.31 -10.33 -10.25 -10.15 -10.15 -10.10 -10.00 -9.98 -9.98 -9.96 -9.97 -9.90 -9.88 -9.93 -9.91 -9.79 -9.72 -9.63 -9.58 -9.48 -9.44 -9.50 -9.39 -9.25 -9.12 -9.01 -9.06 -9.00 -8.85 -8.69 -8.64 -8.60 -8.64 -8.67 -8.51 -8.45 -8.51 -8.60 -8.63 -8.67 -8.71 -8.70 -8.70 -8.63 -8.64 -8.59 -8.60 -8.63 -8.64 -8.63 -8.62 -8.59 -8.56 -8.58 -8.62 -8.56 -8.48 -8.49 -8.47 -8.43 -8.46 -8.41 -8.40 -8.34 -8.30 -8.27 -8.28 -8.27 -8.22 -8.17 -8.14 -8.14 -8.10 -8.07 -8.02 -8.00 -7.93 -7.84 -7.77 -7.67 -7.57 -7.46 -7.40 -7.46 -7.53 -7.61 -7.66 -7.69 -7.72 -7.71 -7.69 -7.65 -7.61 -7.55 -7.49 -7.48 -7.44 -7.38 -7.33 -7.25 -7.16 -7.03 -6.93 -6.83 -6.84 -6.82 -6.81 -6.79 -6.85 -6.94 -7.00 -7.03 -7.08 -7.09 -7.10 -7.09 -7.05 -7.03 -7.01 -6.99 -6.99 -7.01 -7.03 -7.03 -7.04 -7.06 -7.02 -6.91 -6.81 -6.72 -6.71 -6.71 -6.71 -6.71 -6.70 -6.70 -6.70
-9999.00 -9999.00 -9999.00 -9999.00 -9999.00 -9999.00 -9999.00 -9999.00 -9999.00 -9999.00 -9999.00 -9999.00 -9999.00 -9999.00 -9999.00 -9999.00 -9999.00 -9999.00 -9999.00 -9999.00 -9999.00 -9999.00 -9999.00 -9999.00 -9999.00 -9999.00 -9999.00 -9999.00 -9999.00 -9999.00 -9999.00 -9999.00 -9999.00 -9999.00 -9999.00 -9999.00 -9999.00 -9999.00 -9999.00 -9999.00 -9999.00 -9999.00 -9999.00 -9999.00 -9999.00 -9999.00 -9999.00 -9999.00 -9999.00 -9999.00 -9999.00 -9999.00 -9999.00 -9999.00 -9999.00 -9999.00 -9999.00 -9999.00 -9999.00 -9999.00 -9999.00 -9999.00 -9999.00 -9999.00 -9999.00 -9999.00 -9999.00 -9999.00 -9999.00 -9999.00 -9999.00 -9999.00 -9999.00 -9999.00 -9999.00 -9999.00 -9999.00 -9999.00 -9999.00 -9999.00 -9999.00 -9999.00 -9999.00 -9999.00 -9999.00 -9999.00 -9999.00 -9999.00 -9999.00 -9999.00 -9999.00 -21.35 -21.34 -21.34 -21.20 -21.13 -21.07 -21.01 -20.88 -20.86 -20.76 -20.72 -20.63 -20.56 -20.47 -20.35 -20.25 -20.11 -19.97 -19.82 -19.66 -19.44 -19.20 -18.91 -18.60 -18.29 -17.97 -17.66 -17.36 -17.16 -16.96 -16.76 -16.56 -16.38 -16.19 -16.00 -15.81 -15.65 -15.54 -15.43 -15.31 -15.20 -15.07 -14.92 -14.84 -14.77 -14.64 -14.57 -14.43 -14.29 -14.21 -14.13 -14.07 -14.02 -13.97 -13.93 -13.89 -13.84 -13.76 -13.68 -13.61 -13.51 -13.46 -13.34 -13.25 -13.18 -13.15 -13.18 -13.19 -13.21 -13.22 -13.24 -13.23 -13.25 -13.21 -13.23 -13.22 -13.24 -13.22 -13.18 -13.16 -13.09 -13.05 -13.03 -13.01 -12.98 -12.94 -12.91 -12.87 -12.87 -12.90 -12.93 -12.97 -13.00 -13.03 -13.06 -13.03 -12.92 -12.93 -12.88 -12.81 -12.77 -12.79 -12.70 -12.60 -12.50 -12.38 -12.29 -12.20 -12.14 -12.06 -11.92 -11.87 -11.93 -11.91 -11.91 -11.94 -11.92 -11.88 -11.81 -11.77 -11.70 -11.60 -11.57 -11.50 -11.45 -11.40 -11.36 -11.27 -11.27 -11.27 -11.26 -11.25 -11.19 -11.14 -11.11 -11.06 -11.00 -10.83 -10.71 -10.60 -10.51 -10.41 -10.29 -10.27 -10.26 -10.19 -10.14 -10.04 -9.99 -9.97 -10.03 -9.99 -9.88 -9.85 -9.86 -9.80 -9.77 -9.82 -9.83 -9.76 -9.79 -9.78 -9.71 -9.65 -9.58 -9.50 -9.45 -9.39 -9.30 -9.31 -9.23 -9.16 -9.04 -8.99 -8.97 -8.97 -8.94 -8.91 -8.71 -8.64 -8.52 -8.53 -8.42 -8.23 -8.15 -8.05 -8.07 -8.09 -8.17 -8.37 -8.42 -8.36 -8.36 -8.37 -8.36 -8.41 -8.45 -8.53 -8.50 -8.48 -8.51 -8.50 -8.43 -8.34 -8.39 -8.31 -8.29 -8.33 -8.30 -8.25 -8.21 -8.13 -8.07 -8.11 -8.09 -8.07 -8.02 -8.01 -8.01 -7.89 -7.87 -7.83 -7.81 -7.82 -7.77 -7.73 -7.64 -7.52 -7.38 -7.27 -7.27 -7.29 -7.37 -7.46 -7.50 -7.55 -7.62 -7.66 -7.65 -7.61 -7.59 -7.57 -7.50 -7.44 -7.40 -7.35 -7.30 -7.24 -7.17 -7.09 -7.01 -6.93 -6.84 -6.84 -6.82 -6.80 -6.80 -6.81 -6.76 -6.81 -6.87 -6.94 -6.98 -6.96 -6.95 -6.89 -6.85 -6.81 -6.78 -6.83 -6.92 -7.01 -7.05 -7.02 -6.99 -6.97 -6.89 -6.83 -6.80 -6.77 -6.72 -6.67 -6.70 -6.73 -6.72 -6.72
