ncols	378
nrows	32
xllcorner	296925
yllcorner	131695
cellsize	5.00
NODATA_value	-9999.00
-11.84 -11.81 -11.84 -11.79 -11.68 -11.66 -11.52 -11.45 -11.38 -11.33 -11.27 -11.30 -11.22 -11.11 -11.11 -11.13 -11.17 -11.20 -11.22 -11.21 -11.22 -11.20 -11.19 -11.16 -11.14 -11.03 -10.99 -10.94 -10.88 -10.79 -10.72 -10.66 -10.64 -10.59 -10.53 -10.47 -10.45 -10.41 -10.38 -10.39 -10.40 -10.38 -10.32 -10.30 -10.25 -10.22 -10.18 -10.14 -10.08 -10.05 -10.04 -10.00 -9.94 -9.94 -9.78 -9.72 -9.70 -9.69 -9.70 -9.70 -9.67 -9.65 -9.62 -9.64 -9.64 -9.63 -9.62 -9.60 -9.56 -9.51 -9.49 -9.52 -9.47 -9.43 -9.43 -9.42 -9.37 -9.36 -9.29 -9.27 -9.27 -9.25 -9.22 -9.19 -9.17 -9.12 -9.06 -9.02 -9.01 -8.99 -8.97 -8.96 -8.94 -8.93 -8.85 -8.73 -8.59 -8.47 -8.37 -8.26 -8.17 -8.09 -8.05 -8.01 -7.99 -7.98 -7.96 -7.94 -7.92 -7.89 -7.85 -7.79 -7.71 -7.63 -7.56 -7.52 -7.49 -7.48 -7.48 -7.47 -7.47 -7.47 -7.47 -7.46 -7.46 -7.46 -7.45 -7.45 -7.46 -7.52 -7.52 -7.53 -7.51 -7.49 -7.49 -7.48 -7.43 -7.52 -7.60 -7.69 -7.79 -7.86 -7.94 -7.97 -8.01 -8.05 -8.06 -8.07 -8.04 -8.08 -8.13 -8.14 -8.15 -8.16 -8.17 -8.20 -8.26 -8.30 -8.33 -8.35 -8.37 -8.39 -8.40 -8.45 -8.44 -8.47 -8.45 -8.44 -8.53 -8.61 -8.60 -8.60 -8.56 -8.54 -8.51 -8.45 -8.36 -8.34 -8.32 -8.27 -8.25 -8.22 -8.19 -8.20 -8.22 -8.24 -8.25 -8.27 -8.27 -8.30 -8.34 -8.39 -8.40 -8.46 -8.49 -8.51 -8.55 -8.54 -8.53 -8.56 -8.53 -8.53 -8.54 -8.51 -8.50 -8.47 -8.46 -8.48 -8.57 -8.58 -8.60 -8.66 -8.68 -8.65 -8.61 -8.62 -8.66 -8.68 -8.70 -8.71 -8.71 -8.79 -8.74 -8.78 -8.83 -8.89 -8.87 -8.94 -8.95 -8.96 -8.99 -9.01 -8.97 -8.98 -8.99 -9.00 -8.97 -8.98 -8.98 -8.98 -9.01 -9.00 -9.03 -9.05 -9.04 -9.08 -9.10 -9.09 -9.07 -9.11 -9.11 -9.10 -9.10 -9.08 -9.05 -9.04 -9.02 -8.99 -8.97 -8.94 -8.91 -8.91 -8.91 -8.88 -8.84 -8.81 -8.76 -8.74 -8.73 -8.72 -8.72 -8.71 -8.71 -8.70 -8.67 -8.68 -8.65 -8.66 -8.68 -8.69 -8.69 -8.69 -8.69 -8.70 -8.68 -8.67 -8.68 -8.69 -8.65 -8.63 -8.60 -8.61 -8.62 -8.59 -8.58 -8.54 -8.54 -8.51 -8.50 -8.48 -8.51 -8.52 -8.49 -8.47 -8.49 -8.46 -8.43 -8.43 -8.41 -8.38 -8.38 -8.39 -8.45 -8.50 -8.54 -8.57 -8.61 -8.65 -8.65 -8.64 -8.70 -8.72 -8.74 -8.70 -8.71 -8.71 -8.74 -8.74 -8.76 -8.79 -8.79 -8.77 -8.76 -8.76 -8.76 -8.76 -8.74 -8.77 -8.77 -8.77 -8.76 -8.79 -8.80 -8.84 -8.84 -8.85 -8.87 -8.88 -8.89 -8.91 -8.93 -8.92 -8.92 -8.90 -8.91 -8.87 -8.87 -8.86 -8.86 -8.86 -8.86 -8.85 -8.87 -8.83 -8.87 -8.86 -8.86 -8.86 -8.84 -8.85 -8.85 -8.87 -8.88 -8.87 -8.91 -8.90 -8.92 -8.99
-11.80 -11.84 -11.72 -11.61 -11.54 -11.45 -11.38 -11.28 -11.24 -11.15 -11.05 -10.98 -10.98 -10.99 -11.03 -11.05 -11.08 -11.12 -11.13 -11.15 -11.19 -11.17 -11.11 -11.08 -11.06 -10.98 -10.92 -10.85 -10.78 -10.73 -10.69 -10.61 -10.55 -10.49 -10.46 -10.43 -10.41 -10.36 -10.36 -10.32 -10.31 -10.30 -10.29 -10.24 -10.19 -10.16 -10.09 -10.05 -10.03 -9.97 -9.90 -9.84 -9.76 -9.86 -9.86 -9.76 -9.73 -9.69 -9.68 -9.63 -9.56 -9.56 -9.52 -9.52 -9.56 -9.57 -9.51 -9.48 -9.48 -9.42 -9.39 -9.40 -9.40 -9.36 -9.29 -9.31 -9.21 -9.23 -9.25 -9.23 -9.24 -9.22 -9.18 -9.13 -9.09 -9.06 -9.01 -8.96 -8.91 -8.89 -8.88 -8.86 -8.83 -8.81 -8.76 -8.67 -8.58 -8.50 -8.39 -8.27 -8.15 -8.02 -8.00 -8.00 -8.00 -8.00 -8.00 -7.99 -7.96 -7.88 -7.80 -7.70 -7.62 -7.53 -7.44 -7.37 -7.37 -7.37 -7.38 -7.39 -7.40 -7.41 -7.43 -7.43 -7.43 -7.42 -7.41 -7.40 -7.39 -7.40 -7.42 -7.44 -7.45 -7.45 -7.46 -7.46 -7.45 -7.51 -7.58 -7.64 -7.71 -7.79 -7.87 -7.92 -7.94 -7.98 -8.00 -8.01 -8.04 -8.06 -8.07 -8.07 -8.05 -8.07 -8.12 -8.12 -8.15 -8.16 -8.16 -8.15 -8.15 -8.20 -8.22 -8.28 -8.36 -8.42 -8.45 -8.48 -8.52 -8.47 -8.46 -8.53 -8.59 -8.62 -8.59 -8.54 -8.46 -8.42 -8.35 -8.27 -8.26 -8.25 -8.22 -8.20 -8.18 -8.20 -8.17 -8.19 -8.20 -8.23 -8.25 -8.24 -8.31 -8.36 -8.38 -8.42 -8.45 -8.45 -8.45 -8.47 -8.45 -8.41 -8.46 -8.42 -8.44 -8.47 -8.46 -8.48 -8.49 -8.49 -8.58 -8.57 -8.58 -8.62 -8.66 -8.61 -8.62 -8.67 -8.69 -8.71 -8.69 -8.68 -8.77 -8.78 -8.79 -8.83 -8.88 -8.90 -8.89 -8.92 -8.94 -8.95 -8.95 -8.98 -8.97 -8.93 -8.96 -8.95 -8.95 -8.95 -8.95 -8.96 -8.97 -8.97 -8.99 -9.01 -8.99 -9.01 -9.06 -9.06 -9.05 -9.05 -9.05 -9.04 -9.03 -9.04 -9.00 -8.98 -8.97 -8.94 -8.91 -8.89 -8.85 -8.86 -8.84 -8.81 -8.75 -8.71 -8.70 -8.70 -8.68 -8.65 -8.64 -8.63 -8.62 -8.62 -8.59 -8.62 -8.60 -8.61 -8.63 -8.62 -8.61 -8.63 -8.64 -8.62 -8.61 -8.58 -8.59 -8.60 -8.61 -8.56 -8.53 -8.55 -8.55 -8.52 -8.48 -8.45 -8.47 -8.44 -8.40 -8.43 -8.45 -8.43 -8.36 -8.37 -8.36 -8.34 -8.35 -8.37 -8.36 -8.37 -8.36 -8.45 -8.50 -8.54 -8.58 -8.61 -8.61 -8.65 -8.65 -8.65 -8.66 -8.68 -8.70 -8.70 -8.70 -8.73 -8.72 -8.73 -8.75 -8.72 -8.73 -8.73 -8.73 -8.72 -8.73 -8.74 -8.76 -8.74 -8.76 -8.79 -8.80 -8.78 -8.81 -8.87 -8.87 -8.86 -8.86 -8.90 -8.89 -8.90 -8.88 -8.87 -8.88 -8.89 -8.85 -8.84 -8.84 -8.83 -8.83 -8.83 -8.83 -8.83 -8.81 -8.84 -8.82 -8.81 -8.83 -8.81 -8.83 -8.84 -8.86 -8.87 -8.87 -8.90 -8.91 -8.89
-11.77 -11.65 -11.56 -11.46 -11.38 -11.32 -11.17 -11.09 -11.06 -11.00 -10.88 -10.83 -10.84 -10.84 -10.93 -10.98 -10.99 -11.00 -11.03 -11.04 -11.09 -11.07 -11.05 -11.01 -10.97 -10.93 -10.82 -10.78 -10.73 -10.65 -10.57 -10.50 -10.49 -10.46 -10.40 -10.36 -10.32 -10.31 -10.29 -10.28 -10.25 -10.21 -10.20 -10.14 -10.10 -10.06 -10.02 -10.00 -9.97 -9.89 -9.79 -9.68 -9.71 -9.76 -9.82 -9.76 -9.74 -9.69 -9.66 -9.58 -9.54 -9.49 -9.40 -9.54 -9.47 -9.47 -9.45 -9.36 -9.35 -9.37 -9.35 -9.33 -9.29 -9.29 -9.25 -9.23 -9.20 -9.16 -9.17 -9.14 -9.15 -9.15 -9.10 -9.02 -8.99 -8.96 -8.92 -8.90 -8.91 -8.90 -8.90 -8.88 -8.88 -8.86 -8.83 -8.72 -8.62 -8.54 -8.47 -8.42 -8.37 -8.31 -8.25 -8.20 -8.17 -8.13 -8.10 -8.06 -8.00 -7.90 -7.80 -7.68 -7.57 -7.41 -7.31 -7.21 -7.24 -7.27 -7.29 -7.32 -7.35 -7.39 -7.43 -7.46 -7.45 -7.46 -7.47 -7.48 -7.46 -7.44 -7.44 -7.42 -7.42 -7.43 -7.43 -7.43 -7.45 -7.51 -7.56 -7.61 -7.66 -7.70 -7.77 -7.81 -7.83 -7.87 -7.90 -7.91 -7.93 -7.96 -7.98 -7.99 -7.99 -8.02 -8.02 -8.02 -8.04 -8.04 -8.06 -8.06 -8.07 -8.06 -8.06 -8.09 -8.14 -8.21 -8.30 -8.36 -8.43 -8.44 -8.45 -8.47 -8.42 -8.42 -8.50 -8.58 -8.56 -8.48 -8.45 -8.35 -8.30 -8.27 -8.20 -8.20 -8.21 -8.18 -8.16 -8.16 -8.15 -8.16 -8.15 -8.16 -8.22 -8.26 -8.28 -8.34 -8.36 -8.35 -8.38 -8.38 -8.39 -8.39 -8.36 -8.34 -8.31 -8.40 -8.37 -8.43 -8.48 -8.49 -8.49 -8.53 -8.54 -8.54 -8.57 -8.62 -8.64 -8.62 -8.68 -8.67 -8.66 -8.67 -8.66 -8.72 -8.77 -8.77 -8.80 -8.82 -8.86 -8.88 -8.90 -8.91 -8.93 -8.92 -8.94 -8.93 -8.95 -8.93 -8.93 -8.92 -8.92 -8.93 -8.95 -8.94 -8.91 -8.94 -8.95 -8.96 -8.95 -8.97 -8.98 -9.01 -9.01 -9.00 -8.99 -8.98 -8.96 -8.97 -8.97 -8.92 -8.92 -8.88 -8.86 -8.84 -8.80 -8.81 -8.78 -8.74 -8.70 -8.67 -8.63 -8.64 -8.64 -8.60 -8.56 -8.55 -8.55 -8.55 -8.56 -8.57 -8.57 -8.56 -8.58 -8.55 -8.56 -8.54 -8.54 -8.59 -8.55 -8.51 -8.49 -8.50 -8.53 -8.48 -8.46 -8.49 -8.46 -8.43 -8.39 -8.40 -8.41 -8.34 -8.34 -8.35 -8.32 -8.28 -8.25 -8.27 -8.28 -8.30 -8.34 -8.35 -8.35 -8.36 -8.44 -8.50 -8.55 -8.56 -8.59 -8.59 -8.64 -8.66 -8.65 -8.65 -8.68 -8.67 -8.67 -8.69 -8.70 -8.69 -8.68 -8.64 -8.64 -8.64 -8.64 -8.68 -8.72 -8.72 -8.74 -8.74 -8.77 -8.75 -8.79 -8.80 -8.81 -8.76 -8.83 -8.85 -8.86 -8.87 -8.86 -8.87 -8.84 -8.85 -8.83 -8.85 -8.86 -8.82 -8.82 -8.81 -8.80 -8.80 -8.80 -8.80 -8.80 -8.78 -8.78 -8.80 -8.80 -8.76 -8.82 -8.79 -8.83 -8.86 -8.87 -8.87 -8.87 -8.91
-11.51 -11.45 -11.37 -11.31 -11.21 -11.10 -11.03 -10.98 -10.91 -10.66 -10.65 -10.60 -10.67 -10.77 -10.84 -10.84 -10.89 -10.93 -10.96 -11.01 -11.02 -11.02 -11.00 -10.94 -10.90 -10.85 -10.77 -10.66 -10.59 -10.53 -10.46 -10.43 -10.41 -10.36 -10.32 -10.29 -10.26 -10.22 -10.19 -10.17 -10.15 -10.12 -10.11 -10.06 -10.03 -10.00 -9.94 -10.00 -9.93 -9.82 -9.73 -9.72 -9.64 -9.70 -9.78 -9.73 -9.70 -9.65 -9.58 -9.51 -9.55 -9.51 -9.42 -9.45 -9.42 -9.36 -9.35 -9.35 -9.32 -9.31 -9.30 -9.26 -9.28 -9.25 -9.20 -9.13 -9.14 -9.12 -9.12 -9.10 -9.05 -9.01 -8.97 -8.92 -8.87 -8.86 -8.83 -8.81 -8.80 -8.78 -8.79 -8.79 -8.80 -8.81 -8.79 -8.71 -8.64 -8.57 -8.50 -8.46 -8.42 -8.36 -8.31 -8.28 -8.23 -8.16 -8.11 -8.05 -7.97 -7.82 -7.67 -7.54 -7.41 -7.27 -7.15 -7.08 -7.12 -7.17 -7.22 -7.27 -7.32 -7.36 -7.39 -7.42 -7.42 -7.43 -7.45 -7.46 -7.46 -7.46 -7.49 -7.50 -7.50 -7.50 -7.50 -7.50 -7.50 -7.54 -7.57 -7.59 -7.62 -7.65 -7.69 -7.73 -7.74 -7.72 -7.73 -7.76 -7.79 -7.82 -7.84 -7.86 -7.87 -7.90 -7.91 -7.93 -7.94 -7.94 -7.95 -7.95 -7.95 -7.96 -7.96 -7.99 -8.06 -8.11 -8.17 -8.23 -8.28 -8.31 -8.33 -8.37 -8.39 -8.39 -8.40 -8.37 -8.37 -8.39 -8.37 -8.35 -8.34 -8.35 -8.24 -8.21 -8.17 -8.14 -8.14 -8.16 -8.16 -8.13 -8.12 -8.11 -8.12 -8.12 -8.09 -8.22 -8.24 -8.26 -8.30 -8.30 -8.31 -8.30 -8.31 -8.33 -8.31 -8.29 -8.31 -8.35 -8.38 -8.40 -8.44 -8.48 -8.48 -8.51 -8.51 -8.55 -8.54 -8.61 -8.57 -8.62 -8.63 -8.62 -8.65 -8.65 -8.70 -8.73 -8.77 -8.75 -8.78 -8.77 -8.84 -8.86 -8.89 -8.92 -8.91 -8.90 -8.88 -8.90 -8.85 -8.89 -8.89 -8.89 -8.89 -8.91 -8.90 -8.87 -8.89 -8.89 -8.89 -8.90 -8.91 -8.93 -8.93 -8.93 -8.95 -8.93 -8.93 -8.93 -8.89 -8.90 -8.91 -8.87 -8.84 -8.82 -8.80 -8.78 -8.75 -8.73 -8.70 -8.68 -8.66 -8.61 -8.58 -8.59 -8.60 -8.57 -8.50 -8.49 -8.50 -8.50 -8.52 -8.52 -8.52 -8.49 -8.50 -8.48 -8.52 -8.46 -8.46 -8.49 -8.54 -8.47 -8.42 -8.42 -8.43 -8.41 -8.38 -8.39 -8.38 -8.33 -8.31 -8.35 -8.32 -8.22 -8.22 -8.20 -8.16 -8.14 -8.22 -8.24 -8.25 -8.30 -8.33 -8.33 -8.36 -8.43 -8.52 -8.56 -8.55 -8.60 -8.62 -8.63 -8.65 -8.65 -8.63 -8.63 -8.65 -8.68 -8.69 -8.64 -8.61 -8.58 -8.55 -8.55 -8.55 -8.59 -8.64 -8.71 -8.72 -8.73 -8.73 -8.76 -8.76 -8.76 -8.84 -8.79 -8.80 -8.80 -8.82 -8.83 -8.84 -8.84 -8.85 -8.82 -8.81 -8.78 -8.82 -8.82 -8.80 -8.79 -8.79 -8.78 -8.77 -8.77 -8.77 -8.77 -8.78 -8.78 -8.75 -8.80 -8.80 -8.81 -8.82 -8.80 -8.80 -8.87 -8.88 -8.87
-11.30 -11.27 -11.27 -11.18 -11.10 -11.01 -10.94 -10.72 -10.55 -10.44 -10.44 -10.54 -10.75 -10.79 -10.80 -10.79 -10.81 -10.86 -10.89 -10.93 -10.90 -10.92 -10.88 -10.84 -10.80 -10.79 -10.70 -10.61 -10.52 -10.42 -10.38 -10.37 -10.31 -10.26 -10.21 -10.17 -10.13 -10.14 -10.14 -10.09 -10.06 -10.01 -10.02 -9.97 -9.93 -9.91 -9.86 -9.83 -9.80 -9.77 -9.68 -9.71 -9.65 -9.66 -9.60 -9.64 -9.62 -9.58 -9.53 -9.49 -9.42 -9.45 -9.40 -9.35 -9.35 -9.34 -9.32 -9.30 -9.31 -9.28 -9.28 -9.26 -9.23 -9.20 -9.16 -9.12 -9.07 -8.97 -8.97 -8.96 -8.90 -8.83 -8.77 -8.69 -8.69 -8.68 -8.68 -8.66 -8.61 -8.60 -8.62 -8.65 -8.68 -8.71 -8.72 -8.66 -8.60 -8.55 -8.50 -8.46 -8.43 -8.40 -8.33 -8.25 -8.18 -8.10 -8.03 -7.95 -7.88 -7.78 -7.69 -7.61 -7.52 -7.43 -7.35 -7.26 -7.27 -7.31 -7.35 -7.36 -7.38 -7.40 -7.41 -7.43 -7.42 -7.42 -7.42 -7.41 -7.41 -7.44 -7.44 -7.45 -7.47 -7.48 -7.50 -7.51 -7.52 -7.54 -7.56 -7.58 -7.60 -7.63 -7.65 -7.69 -7.68 -7.66 -7.65 -7.65 -7.64 -7.66 -7.71 -7.73 -7.73 -7.74 -7.74 -7.73 -7.78 -7.83 -7.83 -7.84 -7.86 -7.86 -7.86 -7.88 -7.93 -7.98 -8.03 -8.08 -8.14 -8.18 -8.18 -8.21 -8.23 -8.27 -8.31 -8.33 -8.31 -8.31 -8.31 -8.32 -8.29 -8.20 -8.19 -8.22 -8.17 -8.11 -8.12 -8.09 -8.09 -8.08 -8.10 -8.09 -8.07 -8.07 -8.07 -8.09 -8.04 -8.10 -8.20 -8.21 -8.23 -8.25 -8.25 -8.24 -8.23 -8.25 -8.25 -8.29 -8.33 -8.35 -8.34 -8.37 -8.41 -8.43 -8.47 -8.48 -8.48 -8.55 -8.54 -8.54 -8.56 -8.58 -8.59 -8.61 -8.64 -8.68 -8.70 -8.70 -8.74 -8.73 -8.75 -8.73 -8.82 -8.83 -8.84 -8.86 -8.88 -8.84 -8.85 -8.86 -8.87 -8.86 -8.87 -8.87 -8.87 -8.90 -8.86 -8.82 -8.81 -8.78 -8.82 -8.84 -8.86 -8.88 -8.86 -8.88 -8.88 -8.85 -8.87 -8.88 -8.86 -8.82 -8.82 -8.81 -8.76 -8.75 -8.71 -8.70 -8.67 -8.63 -8.61 -8.59 -8.57 -8.55 -8.53 -8.52 -8.52 -8.49 -8.45 -8.43 -8.45 -8.46 -8.46 -8.45 -8.46 -8.43 -8.41 -8.41 -8.45 -8.42 -8.38 -8.36 -8.38 -8.38 -8.35 -8.35 -8.33 -8.28 -8.30 -8.32 -8.27 -8.24 -8.21 -8.18 -8.16 -8.11 -8.09 -8.09 -8.12 -8.18 -8.19 -8.20 -8.26 -8.31 -8.31 -8.35 -8.43 -8.52 -8.55 -8.56 -8.53 -8.56 -8.59 -8.61 -8.62 -8.60 -8.61 -8.62 -8.64 -8.66 -8.60 -8.53 -8.49 -8.45 -8.49 -8.54 -8.59 -8.62 -8.68 -8.73 -8.71 -8.75 -8.75 -8.78 -8.76 -8.76 -8.80 -8.78 -8.78 -8.79 -8.79 -8.81 -8.81 -8.80 -8.81 -8.77 -8.73 -8.78 -8.79 -8.77 -8.77 -8.76 -8.75 -8.75 -8.73 -8.76 -8.75 -8.74 -8.77 -8.78 -8.78 -8.80 -8.80 -8.82 -8.80 -8.81 -8.83 -8.88
-11.18 -11.17 -11.14 -11.09 -10.98 -10.84 -10.70 -10.58 -10.44 -10.38 -10.49 -10.64 -10.74 -10.75 -10.73 -10.70 -10.78 -10.77 -10.75 -10.81 -10.83 -10.80 -10.77 -10.72 -10.69 -10.69 -10.60 -10.46 -10.39 -10.32 -10.28 -10.26 -10.24 -10.16 -10.12 -10.07 -10.08 -10.04 -10.04 -10.04 -9.98 -9.95 -9.91 -9.88 -9.87 -9.83 -9.78 -9.73 -9.72 -9.70 -9.65 -9.61 -9.59 -9.57 -9.54 -9.57 -9.52 -9.50 -9.48 -9.42 -9.39 -9.37 -9.33 -9.34 -9.32 -9.30 -9.31 -9.28 -9.28 -9.28 -9.26 -9.20 -9.16 -9.09 -9.05 -9.04 -9.02 -9.01 -8.96 -8.89 -8.82 -8.72 -8.65 -8.59 -8.55 -8.51 -8.47 -8.47 -8.46 -8.44 -8.45 -8.47 -8.48 -8.49 -8.51 -8.47 -8.43 -8.39 -8.36 -8.33 -8.32 -8.28 -8.24 -8.19 -8.15 -8.10 -8.06 -8.01 -7.95 -7.85 -7.76 -7.66 -7.56 -7.47 -7.37 -7.27 -7.25 -7.26 -7.26 -7.27 -7.27 -7.28 -7.28 -7.28 -7.29 -7.30 -7.31 -7.31 -7.33 -7.36 -7.39 -7.41 -7.45 -7.47 -7.49 -7.51 -7.51 -7.47 -7.46 -7.49 -7.49 -7.54 -7.56 -7.59 -7.60 -7.59 -7.58 -7.58 -7.59 -7.59 -7.59 -7.61 -7.63 -7.65 -7.68 -7.65 -7.66 -7.67 -7.69 -7.71 -7.73 -7.77 -7.79 -7.80 -7.83 -7.87 -7.89 -7.93 -7.99 -8.04 -8.02 -8.06 -8.12 -8.11 -8.13 -8.16 -8.18 -8.20 -8.21 -8.19 -8.20 -8.19 -8.17 -8.12 -8.07 -8.08 -8.06 -8.04 -8.03 -8.03 -8.00 -7.98 -7.97 -8.00 -7.95 -8.03 -8.00 -8.03 -8.03 -8.03 -8.09 -8.18 -8.19 -8.20 -8.17 -8.15 -8.20 -8.21 -8.24 -8.28 -8.28 -8.31 -8.32 -8.33 -8.36 -8.42 -8.42 -8.44 -8.47 -8.49 -8.50 -8.50 -8.53 -8.56 -8.58 -8.59 -8.61 -8.64 -8.66 -8.66 -8.73 -8.71 -8.72 -8.69 -8.76 -8.73 -8.77 -8.77 -8.80 -8.80 -8.81 -8.82 -8.82 -8.85 -8.85 -8.83 -8.84 -8.83 -8.80 -8.76 -8.72 -8.72 -8.79 -8.79 -8.82 -8.83 -8.83 -8.80 -8.83 -8.80 -8.79 -8.80 -8.79 -8.76 -8.75 -8.70 -8.67 -8.64 -8.62 -8.60 -8.58 -8.55 -8.52 -8.50 -8.48 -8.49 -8.46 -8.42 -8.41 -8.39 -8.38 -8.37 -8.38 -8.38 -8.39 -8.39 -8.39 -8.37 -8.32 -8.35 -8.39 -8.35 -8.32 -8.29 -8.27 -8.26 -8.27 -8.25 -8.21 -8.19 -8.22 -8.22 -8.14 -8.10 -8.07 -8.04 -7.99 -8.05 -8.08 -8.12 -8.15 -8.16 -8.15 -8.21 -8.28 -8.29 -8.33 -8.42 -8.51 -8.51 -8.53 -8.51 -8.53 -8.54 -8.57 -8.58 -8.61 -8.58 -8.59 -8.58 -8.57 -8.55 -8.52 -8.44 -8.43 -8.47 -8.53 -8.59 -8.60 -8.63 -8.72 -8.73 -8.73 -8.74 -8.75 -8.76 -8.73 -8.74 -8.76 -8.76 -8.75 -8.77 -8.77 -8.78 -8.78 -8.77 -8.76 -8.68 -8.74 -8.75 -8.75 -8.74 -8.76 -8.73 -8.75 -8.72 -8.72 -8.74 -8.74 -8.74 -8.76 -8.78 -8.80 -8.81 -8.80 -8.83 -8.79 -8.80
-11.07 -11.06 -11.03 -10.97 -10.85 -10.76 -10.69 -10.60 -10.51 -10.43 -10.45 -10.54 -10.61 -10.65 -10.60 -10.56 -10.64 -10.64 -10.66 -10.73 -10.69 -10.68 -10.64 -10.58 -10.54 -10.54 -10.47 -10.40 -10.32 -10.22 -10.21 -10.18 -10.10 -10.05 -10.01 -9.96 -9.98 -9.99 -9.96 -9.94 -9.88 -9.85 -9.82 -9.82 -9.78 -9.74 -9.70 -9.63 -9.60 -9.63 -9.55 -9.52 -9.50 -9.46 -9.44 -9.46 -9.45 -9.43 -9.38 -9.31 -9.25 -9.26 -9.28 -9.30 -9.30 -9.29 -9.26 -9.26 -9.23 -9.19 -9.19 -9.15 -9.09 -9.09 -9.06 -9.05 -8.92 -8.91 -8.81 -8.75 -8.68 -8.57 -8.45 -8.33 -8.31 -8.33 -8.30 -8.26 -8.20 -8.14 -8.17 -8.22 -8.25 -8.29 -8.34 -8.33 -8.32 -8.28 -8.25 -8.23 -8.19 -8.16 -8.13 -8.10 -8.08 -8.05 -8.03 -8.01 -7.96 -7.86 -7.76 -7.66 -7.56 -7.46 -7.35 -7.24 -7.23 -7.23 -7.24 -7.25 -7.25 -7.26 -7.26 -7.27 -7.27 -7.28 -7.29 -7.31 -7.34 -7.36 -7.39 -7.42 -7.45 -7.49 -7.53 -7.56 -7.57 -7.55 -7.52 -7.50 -7.49 -7.46 -7.43 -7.43 -7.42 -7.45 -7.48 -7.51 -7.54 -7.52 -7.50 -7.51 -7.53 -7.54 -7.58 -7.58 -7.60 -7.60 -7.58 -7.60 -7.63 -7.67 -7.69 -7.72 -7.74 -7.76 -7.79 -7.82 -7.89 -7.93 -7.94 -7.96 -8.01 -8.03 -8.00 -8.00 -8.00 -8.01 -8.02 -8.07 -8.08 -8.05 -8.04 -8.02 -7.96 -7.98 -7.95 -7.94 -7.91 -7.96 -7.94 -7.93 -7.88 -7.86 -7.84 -7.89 -7.90 -7.93 -7.95 -7.98 -8.00 -7.97 -8.05 -8.07 -8.09 -8.09 -8.09 -8.08 -8.12 -8.16 -8.20 -8.17 -8.19 -8.21 -8.24 -8.29 -8.30 -8.35 -8.39 -8.42 -8.44 -8.43 -8.47 -8.47 -8.50 -8.52 -8.53 -8.56 -8.60 -8.59 -8.62 -8.62 -8.73 -8.68 -8.69 -8.67 -8.71 -8.63 -8.71 -8.74 -8.79 -8.78 -8.78 -8.79 -8.80 -8.81 -8.80 -8.77 -8.74 -8.76 -8.74 -8.74 -8.71 -8.69 -8.74 -8.78 -8.78 -8.77 -8.79 -8.72 -8.75 -8.73 -8.71 -8.73 -8.71 -8.67 -8.64 -8.60 -8.56 -8.54 -8.52 -8.50 -8.48 -8.46 -8.44 -8.41 -8.42 -8.37 -8.34 -8.31 -8.31 -8.33 -8.32 -8.32 -8.33 -8.33 -8.31 -8.33 -8.31 -8.30 -8.27 -8.27 -8.28 -8.26 -8.25 -8.21 -8.18 -8.18 -8.20 -8.15 -8.06 -8.09 -8.08 -8.05 -8.00 -7.93 -7.96 -7.99 -8.05 -8.08 -8.10 -8.12 -8.14 -8.11 -8.17 -8.23 -8.30 -8.35 -8.44 -8.47 -8.48 -8.48 -8.48 -8.47 -8.52 -8.51 -8.54 -8.54 -8.55 -8.54 -8.51 -8.50 -8.50 -8.50 -8.52 -8.50 -8.47 -8.52 -8.57 -8.64 -8.62 -8.67 -8.74 -8.70 -8.73 -8.75 -8.76 -8.75 -8.71 -8.71 -8.73 -8.73 -8.73 -8.74 -8.75 -8.74 -8.75 -8.74 -8.64 -8.71 -8.65 -8.74 -8.71 -8.73 -8.72 -8.72 -8.73 -8.70 -8.74 -8.75 -8.73 -8.73 -8.76 -8.78 -8.80 -8.81 -8.81 -8.83
-10.97 -10.92 -10.87 -10.89 -10.91 -10.83 -10.69 -10.66 -10.54 -10.49 -10.47 -10.42 -10.51 -10.63 -10.49 -10.40 -10.44 -10.52 -10.54 -10.60 -10.59 -10.57 -10.49 -10.44 -10.42 -10.39 -10.38 -10.29 -10.20 -10.13 -10.09 -10.03 -9.97 -9.91 -9.85 -9.87 -9.89 -9.85 -9.83 -9.80 -9.78 -9.75 -9.70 -9.69 -9.65 -9.63 -9.59 -9.55 -9.45 -9.39 -9.35 -9.35 -9.36 -9.37 -9.39 -9.35 -9.28 -9.19 -9.20 -9.20 -9.23 -9.25 -9.21 -9.20 -9.21 -9.23 -9.20 -9.18 -9.14 -9.13 -9.13 -9.11 -9.06 -8.99 -8.95 -8.91 -8.85 -8.81 -8.72 -8.63 -8.53 -8.44 -8.36 -8.26 -8.16 -8.08 -8.00 -7.98 -7.95 -7.94 -7.99 -8.04 -8.12 -8.18 -8.24 -8.23 -8.20 -8.17 -8.14 -8.13 -8.13 -8.13 -8.10 -8.08 -8.05 -8.03 -8.02 -8.00 -7.95 -7.85 -7.74 -7.65 -7.56 -7.48 -7.41 -7.31 -7.26 -7.25 -7.25 -7.24 -7.23 -7.22 -7.21 -7.20 -7.22 -7.23 -7.24 -7.26 -7.27 -7.29 -7.32 -7.35 -7.38 -7.41 -7.45 -7.49 -7.50 -7.47 -7.46 -7.44 -7.42 -7.40 -7.39 -7.40 -7.42 -7.44 -7.46 -7.48 -7.45 -7.37 -7.40 -7.42 -7.41 -7.41 -7.43 -7.48 -7.51 -7.51 -7.51 -7.52 -7.51 -7.51 -7.55 -7.59 -7.63 -7.66 -7.69 -7.72 -7.76 -7.82 -7.86 -7.92 -7.98 -8.00 -7.95 -7.90 -7.88 -7.82 -7.81 -7.84 -7.89 -7.97 -7.95 -7.91 -7.89 -7.86 -7.78 -7.80 -7.80 -7.79 -7.83 -7.83 -7.88 -7.84 -7.78 -7.78 -7.80 -7.78 -7.83 -7.84 -7.90 -7.92 -7.96 -7.91 -7.94 -7.96 -7.97 -7.99 -7.97 -8.01 -8.05 -8.09 -8.12 -8.10 -8.10 -8.11 -8.17 -8.22 -8.29 -8.32 -8.37 -8.39 -8.39 -8.41 -8.43 -8.46 -8.48 -8.49 -8.52 -8.53 -8.57 -8.55 -8.57 -8.60 -8.67 -8.65 -8.65 -8.62 -8.65 -8.61 -8.69 -8.73 -8.76 -8.75 -8.75 -8.72 -8.75 -8.73 -8.73 -8.69 -8.67 -8.71 -8.69 -8.68 -8.69 -8.68 -8.67 -8.75 -8.75 -8.72 -8.71 -8.68 -8.66 -8.67 -8.64 -8.63 -8.60 -8.56 -8.52 -8.49 -8.47 -8.45 -8.43 -8.41 -8.40 -8.36 -8.36 -8.34 -8.32 -8.28 -8.27 -8.25 -8.24 -8.27 -8.25 -8.25 -8.26 -8.25 -8.24 -8.28 -8.25 -8.21 -8.21 -8.20 -8.17 -8.18 -8.17 -8.12 -8.09 -8.09 -8.10 -8.03 -7.97 -7.95 -7.93 -7.90 -7.91 -7.95 -8.00 -8.04 -8.11 -8.07 -8.10 -8.11 -8.07 -8.13 -8.31 -8.36 -8.41 -8.47 -8.46 -8.46 -8.47 -8.46 -8.45 -8.45 -8.48 -8.47 -8.51 -8.51 -8.50 -8.47 -8.43 -8.47 -8.47 -8.51 -8.53 -8.54 -8.52 -8.56 -8.64 -8.61 -8.65 -8.69 -8.72 -8.71 -8.73 -8.75 -8.74 -8.72 -8.73 -8.69 -8.71 -8.71 -8.71 -8.72 -8.74 -8.70 -8.72 -8.66 -8.64 -8.65 -8.69 -8.69 -8.70 -8.70 -8.71 -8.71 -8.71 -8.74 -8.74 -8.76 -8.71 -8.72 -8.76 -8.80 -8.86 -8.86
-10.90 -10.79 -10.82 -10.84 -10.87 -10.82 -10.74 -10.69 -10.57 -10.46 -10.54 -10.58 -10.53 -10.42 -10.40 -10.34 -10.35 -10.42 -10.40 -10.46 -10.48 -10.43 -10.29 -10.30 -10.23 -10.23 -10.17 -10.11 -10.05 -9.99 -9.94 -9.89 -9.83 -9.81 -9.80 -9.70 -9.72 -9.72 -9.70 -9.69 -9.66 -9.63 -9.60 -9.60 -9.58 -9.51 -9.50 -9.45 -9.38 -9.33 -9.30 -9.28 -9.28 -9.26 -9.24 -9.22 -9.16 -9.16 -9.17 -9.12 -9.12 -9.14 -9.15 -9.15 -9.13 -9.10 -9.11 -9.11 -9.07 -9.06 -9.05 -9.01 -8.95 -8.92 -8.88 -8.80 -8.73 -8.69 -8.58 -8.47 -8.35 -8.20 -8.07 -7.91 -7.82 -7.80 -7.79 -7.80 -7.80 -7.86 -7.89 -7.96 -8.01 -8.05 -8.09 -8.10 -8.10 -8.08 -8.08 -8.05 -8.02 -8.00 -7.97 -7.96 -7.94 -7.92 -7.91 -7.89 -7.85 -7.77 -7.69 -7.61 -7.53 -7.45 -7.38 -7.30 -7.25 -7.21 -7.17 -7.13 -7.08 -7.04 -7.01 -7.00 -7.04 -7.08 -7.12 -7.15 -7.19 -7.21 -7.24 -7.27 -7.30 -7.33 -7.37 -7.42 -7.43 -7.42 -7.41 -7.38 -7.37 -7.34 -7.34 -7.29 -7.33 -7.41 -7.47 -7.56 -7.61 -7.59 -7.46 -7.38 -7.33 -7.32 -7.34 -7.35 -7.33 -7.39 -7.43 -7.45 -7.44 -7.44 -7.46 -7.50 -7.53 -7.58 -7.60 -7.63 -7.66 -7.69 -7.73 -7.79 -7.83 -7.89 -7.89 -7.89 -7.85 -7.77 -7.71 -7.71 -7.71 -7.72 -7.77 -7.79 -7.80 -7.77 -7.74 -7.71 -7.67 -7.63 -7.71 -7.72 -7.69 -7.76 -7.78 -7.76 -7.73 -7.68 -7.74 -7.74 -7.70 -7.80 -7.81 -7.85 -7.86 -7.82 -7.85 -7.87 -7.87 -7.90 -7.93 -7.97 -7.98 -8.02 -8.04 -8.04 -8.05 -8.10 -8.13 -8.16 -8.26 -8.30 -8.35 -8.35 -8.33 -8.37 -8.40 -8.44 -8.43 -8.45 -8.49 -8.50 -8.51 -8.52 -8.54 -8.58 -8.60 -8.62 -8.60 -8.59 -8.57 -8.60 -8.67 -8.70 -8.69 -8.65 -8.66 -8.67 -8.68 -8.66 -8.66 -8.61 -8.61 -8.65 -8.63 -8.62 -8.65 -8.65 -8.62 -8.65 -8.63 -8.63 -8.60 -8.60 -8.58 -8.55 -8.54 -8.52 -8.49 -8.45 -8.41 -8.39 -8.37 -8.36 -8.36 -8.35 -8.32 -8.31 -8.28 -8.26 -8.24 -8.20 -8.19 -8.22 -8.16 -8.22 -8.18 -8.18 -8.19 -8.20 -8.19 -8.21 -8.17 -8.15 -8.11 -8.09 -8.09 -8.09 -8.09 -8.04 -7.99 -7.96 -7.93 -7.91 -7.86 -7.83 -7.89 -7.93 -7.95 -7.99 -8.04 -8.10 -8.07 -8.07 -8.10 -8.13 -8.23 -8.35 -8.41 -8.44 -8.45 -8.44 -8.43 -8.44 -8.43 -8.43 -8.43 -8.44 -8.44 -8.43 -8.48 -8.45 -8.45 -8.45 -8.42 -8.49 -8.47 -8.52 -8.55 -8.56 -8.56 -8.60 -8.67 -8.63 -8.68 -8.69 -8.71 -8.70 -8.71 -8.71 -8.70 -8.70 -8.68 -8.70 -8.69 -8.68 -8.68 -8.70 -8.68 -8.67 -8.67 -8.64 -8.67 -8.67 -8.66 -8.68 -8.68 -8.69 -8.71 -8.72 -8.72 -8.76 -8.74 -8.79 -8.70 -8.79 -8.85 -8.88
-10.87 -10.83 -10.85 -10.83 -10.81 -10.79 -10.75 -10.65 -10.55 -10.55 -10.60 -10.63 -10.54 -10.41 -10.34 -10.30 -10.25 -10.27 -10.30 -10.29 -10.28 -10.23 -10.20 -10.13 -10.11 -10.06 -10.00 -9.94 -9.89 -9.86 -9.81 -9.75 -9.75 -9.68 -9.64 -9.60 -9.58 -9.58 -9.57 -9.57 -9.55 -9.52 -9.51 -9.47 -9.42 -9.41 -9.37 -9.31 -9.27 -9.29 -9.27 -9.20 -9.15 -9.14 -9.18 -9.20 -9.10 -9.00 -9.05 -9.03 -9.04 -9.02 -9.04 -9.06 -9.07 -9.03 -9.02 -8.99 -8.96 -8.96 -8.97 -8.93 -8.85 -8.80 -8.71 -8.68 -8.61 -8.56 -8.43 -8.30 -8.16 -8.03 -7.88 -7.73 -7.62 -7.64 -7.67 -7.71 -7.77 -7.81 -7.85 -7.91 -7.95 -7.97 -7.96 -8.02 -8.03 -7.99 -7.97 -7.94 -7.89 -7.85 -7.85 -7.83 -7.83 -7.81 -7.80 -7.80 -7.78 -7.71 -7.63 -7.56 -7.49 -7.42 -7.34 -7.27 -7.21 -7.17 -7.13 -7.08 -7.02 -6.97 -6.92 -6.90 -6.96 -7.02 -7.08 -7.13 -7.18 -7.20 -7.22 -7.23 -7.26 -7.29 -7.31 -7.33 -7.36 -7.38 -7.39 -7.38 -7.37 -7.36 -7.31 -7.31 -7.34 -7.32 -7.31 -7.32 -7.34 -7.37 -7.44 -7.49 -7.50 -7.44 -7.31 -7.27 -7.29 -7.30 -7.34 -7.34 -7.36 -7.37 -7.38 -7.42 -7.49 -7.53 -7.58 -7.61 -7.62 -7.62 -7.65 -7.68 -7.73 -7.73 -7.74 -7.76 -7.76 -7.72 -7.71 -7.68 -7.64 -7.65 -7.64 -7.63 -7.68 -7.68 -7.68 -7.63 -7.61 -7.59 -7.56 -7.55 -7.62 -7.64 -7.64 -7.63 -7.64 -7.65 -7.63 -7.63 -7.68 -7.71 -7.65 -7.73 -7.78 -7.77 -7.76 -7.75 -7.77 -7.81 -7.85 -7.86 -7.89 -7.92 -7.92 -7.96 -7.99 -8.00 -8.02 -8.06 -8.10 -8.12 -8.22 -8.27 -8.31 -8.30 -8.32 -8.34 -8.40 -8.39 -8.41 -8.42 -8.44 -8.47 -8.46 -8.49 -8.53 -8.54 -8.56 -8.57 -8.54 -8.56 -8.51 -8.59 -8.62 -8.61 -8.56 -8.59 -8.57 -8.62 -8.61 -8.60 -8.58 -8.53 -8.56 -8.60 -8.58 -8.56 -8.54 -8.55 -8.49 -8.49 -8.52 -8.51 -8.51 -8.51 -8.48 -8.47 -8.46 -8.41 -8.37 -8.34 -8.32 -8.37 -8.32 -8.28 -8.25 -8.25 -8.22 -8.23 -8.20 -8.18 -8.17 -8.14 -8.15 -8.17 -8.11 -8.16 -8.13 -8.14 -8.14 -8.15 -8.13 -8.11 -8.06 -8.03 -8.01 -8.01 -8.00 -8.00 -7.98 -7.92 -7.86 -7.82 -7.79 -7.81 -7.83 -7.85 -7.90 -7.95 -7.99 -8.03 -8.10 -8.09 -8.12 -8.17 -8.24 -8.33 -8.42 -8.42 -8.40 -8.39 -8.41 -8.39 -8.40 -8.41 -8.42 -8.46 -8.44 -8.40 -8.41 -8.39 -8.45 -8.41 -8.43 -8.44 -8.42 -8.44 -8.50 -8.50 -8.54 -8.57 -8.60 -8.59 -8.63 -8.64 -8.67 -8.69 -8.67 -8.66 -8.68 -8.67 -8.66 -8.65 -8.64 -8.65 -8.68 -8.67 -8.66 -8.66 -8.65 -8.65 -8.65 -8.66 -8.66 -8.65 -8.66 -8.68 -8.68 -8.70 -8.70 -8.72 -8.72 -8.78 -8.80 -8.78 -8.85 -8.87
-10.76 -10.83 -10.78 -10.72 -10.74 -10.69 -10.63 -10.57 -10.52 -10.46 -10.46 -10.39 -10.37 -10.35 -10.29 -10.15 -10.12 -10.14 -10.11 -10.10 -10.05 -10.02 -10.06 -9.99 -9.97 -9.89 -9.85 -9.79 -9.74 -9.70 -9.66 -9.64 -9.59 -9.56 -9.51 -9.46 -9.46 -9.43 -9.47 -9.41 -9.42 -9.39 -9.36 -9.34 -9.33 -9.29 -9.27 -9.22 -9.19 -9.16 -9.14 -9.07 -9.05 -9.16 -9.12 -9.02 -9.00 -8.93 -8.91 -8.93 -8.93 -8.93 -8.92 -8.93 -8.93 -8.89 -8.92 -8.83 -8.82 -8.83 -8.82 -8.80 -8.76 -8.70 -8.64 -8.56 -8.50 -8.44 -8.30 -8.16 -8.03 -7.92 -7.81 -7.71 -7.59 -7.64 -7.67 -7.73 -7.76 -7.74 -7.75 -7.80 -7.83 -7.89 -7.91 -7.94 -7.90 -7.86 -7.81 -7.79 -7.74 -7.71 -7.68 -7.67 -7.66 -7.64 -7.64 -7.64 -7.63 -7.57 -7.52 -7.46 -7.41 -7.35 -7.30 -7.24 -7.21 -7.19 -7.17 -7.13 -7.08 -7.04 -7.00 -7.00 -7.04 -7.09 -7.14 -7.18 -7.22 -7.21 -7.21 -7.21 -7.21 -7.20 -7.21 -7.22 -7.24 -7.27 -7.29 -7.31 -7.35 -7.39 -7.41 -7.41 -7.40 -7.40 -7.37 -7.35 -7.35 -7.35 -7.37 -7.37 -7.38 -7.41 -7.44 -7.44 -7.38 -7.28 -7.27 -7.29 -7.31 -7.30 -7.34 -7.36 -7.38 -7.40 -7.45 -7.53 -7.60 -7.63 -7.65 -7.66 -7.64 -7.66 -7.68 -7.67 -7.67 -7.66 -7.68 -7.65 -7.62 -7.63 -7.59 -7.59 -7.60 -7.57 -7.56 -7.59 -7.57 -7.54 -7.53 -7.50 -7.47 -7.48 -7.52 -7.55 -7.56 -7.52 -7.55 -7.56 -7.54 -7.56 -7.61 -7.65 -7.66 -7.66 -7.74 -7.68 -7.70 -7.70 -7.70 -7.76 -7.78 -7.83 -7.84 -7.88 -7.90 -7.90 -7.94 -7.96 -8.00 -8.04 -8.07 -8.12 -8.19 -8.24 -8.26 -8.25 -8.28 -8.32 -8.38 -8.34 -8.35 -8.38 -8.40 -8.42 -8.43 -8.46 -8.47 -8.49 -8.51 -8.52 -8.47 -8.52 -8.51 -8.55 -8.52 -8.53 -8.48 -8.54 -8.52 -8.55 -8.54 -8.55 -8.50 -8.47 -8.51 -8.54 -8.50 -8.47 -8.45 -8.42 -8.34 -8.37 -8.41 -8.41 -8.41 -8.41 -8.39 -8.37 -8.35 -8.30 -8.27 -8.30 -8.27 -8.22 -8.18 -8.17 -8.15 -8.17 -8.15 -8.14 -8.13 -8.11 -8.09 -8.07 -8.11 -8.11 -8.07 -8.09 -8.08 -8.08 -8.06 -8.04 -8.01 -7.98 -7.95 -7.93 -7.96 -7.94 -7.91 -7.89 -7.86 -7.80 -7.75 -7.77 -7.80 -7.84 -7.84 -7.89 -7.96 -7.98 -8.05 -8.13 -8.14 -8.18 -8.23 -8.33 -8.37 -8.42 -8.42 -8.38 -8.31 -8.38 -8.37 -8.37 -8.39 -8.38 -8.39 -8.44 -8.39 -8.36 -8.40 -8.40 -8.43 -8.38 -8.41 -8.44 -8.41 -8.43 -8.48 -8.52 -8.58 -8.61 -8.60 -8.60 -8.61 -8.65 -8.66 -8.66 -8.64 -8.63 -8.65 -8.63 -8.62 -8.61 -8.61 -8.60 -8.64 -8.64 -8.63 -8.62 -8.62 -8.65 -8.64 -8.65 -8.65 -8.65 -8.66 -8.67 -8.68 -8.70 -8.69 -8.71 -8.77 -8.77 -8.84 -8.87
-10.64 -10.74 -10.70 -10.57 -10.53 -10.41 -10.54 -10.50 -10.50 -10.34 -10.25 -10.22 -10.11 -10.13 -10.13 -9.96 -9.96 -9.93 -9.93 -9.87 -9.86 -9.87 -9.86 -9.79 -9.75 -9.71 -9.65 -9.60 -9.52 -9.48 -9.47 -9.46 -9.44 -9.35 -9.31 -9.30 -9.29 -9.33 -9.27 -9.30 -9.29 -9.29 -9.28 -9.22 -9.20 -9.20 -9.13 -9.10 -9.10 -9.05 -9.02 -8.99 -9.03 -9.06 -9.17 -8.97 -8.89 -8.84 -8.85 -8.86 -8.85 -8.82 -8.84 -8.76 -8.75 -8.80 -8.77 -8.76 -8.73 -8.70 -8.68 -8.67 -8.64 -8.55 -8.50 -8.45 -8.38 -8.30 -8.19 -8.10 -7.99 -7.88 -7.80 -7.72 -7.65 -7.65 -7.67 -7.67 -7.67 -7.66 -7.67 -7.71 -7.74 -7.75 -7.75 -7.78 -7.76 -7.71 -7.65 -7.59 -7.54 -7.48 -7.43 -7.42 -7.42 -7.42 -7.41 -7.39 -7.36 -7.33 -7.30 -7.28 -7.25 -7.22 -7.19 -7.17 -7.14 -7.13 -7.12 -7.11 -7.09 -7.07 -7.04 -7.02 -7.01 -7.02 -7.03 -7.04 -7.03 -7.05 -7.07 -7.10 -7.12 -7.14 -7.14 -7.16 -7.19 -7.21 -7.23 -7.28 -7.30 -7.31 -7.28 -7.31 -7.30 -7.31 -7.31 -7.31 -7.31 -7.32 -7.33 -7.32 -7.34 -7.34 -7.33 -7.34 -7.33 -7.31 -7.32 -7.30 -7.27 -7.27 -7.28 -7.30 -7.30 -7.31 -7.35 -7.43 -7.49 -7.52 -7.58 -7.66 -7.68 -7.70 -7.65 -7.67 -7.66 -7.66 -7.63 -7.59 -7.59 -7.59 -7.57 -7.54 -7.54 -7.53 -7.54 -7.51 -7.49 -7.51 -7.48 -7.45 -7.42 -7.42 -7.42 -7.41 -7.42 -7.46 -7.47 -7.46 -7.46 -7.46 -7.47 -7.50 -7.53 -7.59 -7.66 -7.62 -7.68 -7.62 -7.63 -7.64 -7.66 -7.70 -7.72 -7.75 -7.79 -7.81 -7.86 -7.89 -7.90 -7.92 -7.98 -8.01 -8.05 -8.11 -8.15 -8.22 -8.20 -8.21 -8.24 -8.28 -8.29 -8.29 -8.30 -8.33 -8.35 -8.36 -8.38 -8.42 -8.43 -8.43 -8.45 -8.46 -8.42 -8.48 -8.49 -8.47 -8.45 -8.46 -8.43 -8.48 -8.46 -8.49 -8.47 -8.49 -8.42 -8.41 -8.42 -8.44 -8.39 -8.38 -8.35 -8.32 -8.29 -8.29 -8.31 -8.30 -8.32 -8.31 -8.28 -8.27 -8.21 -8.18 -8.20 -8.17 -8.12 -8.12 -8.10 -8.10 -8.10 -8.09 -8.09 -8.06 -8.05 -8.04 -8.03 -8.03 -8.07 -8.06 -8.04 -8.05 -7.99 -7.97 -7.96 -7.93 -7.90 -7.86 -7.87 -7.89 -7.88 -7.85 -7.82 -7.78 -7.78 -7.78 -7.79 -7.83 -7.85 -7.85 -7.89 -7.97 -8.01 -8.09 -8.15 -8.19 -8.23 -8.29 -8.33 -8.34 -8.32 -8.37 -8.42 -8.33 -8.32 -8.38 -8.34 -8.36 -8.35 -8.35 -8.41 -8.40 -8.34 -8.39 -8.39 -8.41 -8.40 -8.36 -8.40 -8.44 -8.40 -8.43 -8.51 -8.57 -8.63 -8.63 -8.59 -8.59 -8.62 -8.64 -8.64 -8.63 -8.61 -8.60 -8.60 -8.59 -8.58 -8.57 -8.59 -8.60 -8.60 -8.60 -8.58 -8.61 -8.63 -8.64 -8.63 -8.66 -8.65 -8.66 -8.66 -8.65 -8.69 -8.70 -8.75 -8.76 -8.84 -8.86
-10.51 -10.47 -10.38 -10.29 -10.22 -10.18 -10.17 -10.07 -10.06 -10.04 -9.95 -9.89 -9.86 -9.85 -9.80 -9.72 -9.72 -9.68 -9.63 -9.62 -9.60 -9.57 -9.55 -9.50 -9.50 -9.45 -9.40 -9.33 -9.23 -9.22 -9.22 -9.18 -9.18 -9.16 -9.16 -9.17 -9.20 -9.20 -9.17 -9.14 -9.17 -9.12 -9.05 -9.03 -9.04 -8.99 -8.97 -8.95 -8.93 -8.89 -8.92 -8.92 -8.91 -8.93 -8.90 -8.87 -8.80 -8.77 -8.74 -8.72 -8.72 -8.71 -8.70 -8.69 -8.66 -8.63 -8.61 -8.61 -8.58 -8.57 -8.56 -8.53 -8.50 -8.41 -8.33 -8.26 -8.17 -8.10 -8.02 -7.97 -7.90 -7.84 -7.79 -7.74 -7.70 -7.68 -7.66 -7.64 -7.62 -7.60 -7.59 -7.64 -7.68 -7.67 -7.68 -7.65 -7.62 -7.55 -7.50 -7.43 -7.34 -7.26 -7.17 -7.17 -7.18 -7.18 -7.20 -7.25 -7.28 -7.25 -7.23 -7.20 -7.18 -7.15 -7.13 -7.09 -7.11 -7.14 -7.17 -7.21 -7.23 -7.20 -7.17 -7.12 -7.06 -7.03 -7.00 -6.98 -6.97 -6.96 -6.98 -6.99 -6.99 -7.00 -7.01 -7.01 -7.04 -7.09 -7.12 -7.16 -7.21 -7.27 -7.29 -7.28 -7.26 -7.26 -7.25 -7.24 -7.25 -7.26 -7.28 -7.29 -7.30 -7.31 -7.30 -7.29 -7.27 -7.26 -7.24 -7.21 -7.18 -7.20 -7.25 -7.26 -7.24 -7.27 -7.28 -7.32 -7.41 -7.47 -7.55 -7.60 -7.65 -7.65 -7.63 -7.64 -7.65 -7.67 -7.58 -7.57 -7.49 -7.52 -7.51 -7.51 -7.50 -7.47 -7.47 -7.45 -7.46 -7.43 -7.42 -7.44 -7.38 -7.36 -7.35 -7.34 -7.38 -7.34 -7.33 -7.37 -7.39 -7.39 -7.39 -7.40 -7.42 -7.44 -7.44 -7.51 -7.57 -7.60 -7.58 -7.61 -7.55 -7.55 -7.61 -7.66 -7.70 -7.73 -7.73 -7.75 -7.78 -7.84 -7.87 -7.90 -7.96 -7.99 -8.03 -8.05 -8.14 -8.18 -8.16 -8.17 -8.20 -8.21 -8.20 -8.24 -8.25 -8.28 -8.30 -8.30 -8.35 -8.37 -8.36 -8.36 -8.38 -8.39 -8.41 -8.44 -8.42 -8.41 -8.39 -8.40 -8.39 -8.43 -8.41 -8.42 -8.39 -8.40 -8.36 -8.34 -8.34 -8.34 -8.28 -8.26 -8.26 -8.21 -8.20 -8.20 -8.22 -8.20 -8.21 -8.20 -8.17 -8.10 -8.06 -8.10 -8.08 -8.06 -8.04 -8.03 -8.04 -8.03 -8.03 -8.00 -8.01 -7.98 -7.99 -8.01 -8.00 -8.01 -8.02 -7.98 -7.95 -7.95 -7.89 -7.85 -7.84 -7.80 -7.79 -7.81 -7.83 -7.82 -7.80 -7.78 -7.80 -7.80 -7.82 -7.83 -7.83 -7.87 -7.90 -7.92 -7.98 -8.05 -8.12 -8.18 -8.23 -8.26 -8.28 -8.29 -8.30 -8.29 -8.27 -8.32 -8.31 -8.32 -8.31 -8.34 -8.35 -8.32 -8.33 -8.36 -8.41 -8.37 -8.33 -8.39 -8.39 -8.41 -8.36 -8.33 -8.40 -8.47 -8.46 -8.50 -8.55 -8.59 -8.62 -8.60 -8.58 -8.59 -8.62 -8.62 -8.61 -8.59 -8.58 -8.58 -8.56 -8.57 -8.60 -8.58 -8.58 -8.60 -8.60 -8.60 -8.60 -8.61 -8.64 -8.62 -8.64 -8.66 -8.65 -8.65 -8.65 -8.70 -8.74 -8.79 -8.83 -8.86
-10.24 -10.12 -10.01 -9.94 -9.89 -9.83 -9.77 -9.66 -9.67 -9.66 -9.61 -9.59 -9.61 -9.53 -9.50 -9.51 -9.47 -9.38 -9.39 -9.37 -9.32 -9.27 -9.17 -9.17 -9.18 -9.14 -9.08 -9.04 -8.97 -8.90 -8.93 -8.96 -8.97 -9.02 -9.03 -9.01 -9.03 -9.06 -9.03 -8.99 -8.92 -8.91 -8.87 -8.86 -8.86 -8.82 -8.81 -8.82 -8.80 -8.79 -8.76 -8.73 -8.75 -8.75 -8.70 -8.70 -8.67 -8.62 -8.57 -8.57 -8.58 -8.56 -8.55 -8.54 -8.52 -8.51 -8.47 -8.43 -8.40 -8.37 -8.34 -8.33 -8.32 -8.21 -8.12 -8.05 -8.01 -7.95 -7.91 -7.87 -7.84 -7.80 -7.76 -7.73 -7.71 -7.70 -7.69 -7.69 -7.67 -7.65 -7.63 -7.60 -7.60 -7.58 -7.55 -7.52 -7.47 -7.38 -7.28 -7.19 -7.07 -6.97 -6.88 -6.94 -7.02 -7.06 -7.13 -7.22 -7.32 -7.29 -7.24 -7.20 -7.16 -7.12 -7.08 -7.04 -7.05 -7.07 -7.08 -7.10 -7.12 -7.16 -7.16 -7.12 -7.09 -7.04 -6.97 -6.90 -6.85 -6.83 -6.85 -6.86 -6.86 -6.87 -6.87 -6.89 -6.93 -6.97 -6.99 -7.01 -7.02 -7.06 -7.08 -7.12 -7.15 -7.17 -7.19 -7.21 -7.20 -7.20 -7.20 -7.23 -7.27 -7.31 -7.28 -7.25 -7.20 -7.22 -7.20 -7.19 -7.18 -7.16 -7.15 -7.15 -7.18 -7.18 -7.24 -7.29 -7.30 -7.34 -7.39 -7.46 -7.53 -7.57 -7.57 -7.57 -7.57 -7.57 -7.54 -7.50 -7.36 -7.37 -7.39 -7.34 -7.42 -7.44 -7.41 -7.39 -7.36 -7.35 -7.37 -7.35 -7.34 -7.36 -7.31 -7.29 -7.28 -7.26 -7.33 -7.28 -7.26 -7.32 -7.33 -7.34 -7.35 -7.35 -7.40 -7.40 -7.42 -7.47 -7.52 -7.56 -7.58 -7.57 -7.52 -7.55 -7.59 -7.63 -7.67 -7.71 -7.73 -7.75 -7.76 -7.80 -7.84 -7.89 -7.96 -7.98 -8.00 -8.04 -8.09 -8.11 -8.11 -8.12 -8.14 -8.15 -8.17 -8.20 -8.19 -8.22 -8.26 -8.25 -8.29 -8.30 -8.28 -8.32 -8.32 -8.34 -8.36 -8.37 -8.36 -8.33 -8.34 -8.34 -8.34 -8.38 -8.35 -8.32 -8.31 -8.29 -8.30 -8.28 -8.23 -8.21 -8.17 -8.14 -8.13 -8.14 -8.08 -8.12 -8.09 -8.11 -8.10 -8.06 -8.00 -7.98 -8.03 -8.01 -8.01 -7.98 -7.98 -7.97 -7.97 -7.96 -7.95 -7.94 -7.96 -7.94 -7.96 -7.98 -7.95 -7.95 -7.91 -7.85 -7.85 -7.83 -7.75 -7.77 -7.80 -7.79 -7.76 -7.77 -7.76 -7.79 -7.82 -7.85 -7.85 -7.83 -7.85 -7.85 -7.89 -7.92 -7.95 -8.00 -8.08 -8.16 -8.20 -8.23 -8.24 -8.23 -8.25 -8.24 -8.29 -8.27 -8.25 -8.28 -8.32 -8.27 -8.31 -8.31 -8.31 -8.30 -8.33 -8.38 -8.33 -8.32 -8.32 -8.38 -8.39 -8.42 -8.38 -8.43 -8.44 -8.48 -8.50 -8.51 -8.57 -8.60 -8.57 -8.60 -8.57 -8.60 -8.60 -8.59 -8.58 -8.56 -8.55 -8.54 -8.54 -8.55 -8.57 -8.58 -8.60 -8.60 -8.61 -8.59 -8.61 -8.62 -8.62 -8.61 -8.65 -8.66 -8.66 -8.67 -8.74 -8.78 -8.83 -8.85
-9.96 -9.81 -9.64 -9.56 -9.48 -9.41 -9.36 -9.38 -9.37 -9.33 -9.28 -9.28 -9.28 -9.30 -9.29 -9.18 -9.12 -9.15 -9.09 -9.05 -9.01 -9.00 -8.96 -8.95 -8.89 -8.86 -8.66 -8.68 -8.71 -8.72 -8.74 -8.73 -8.73 -8.81 -8.87 -8.87 -8.86 -8.81 -8.71 -8.78 -8.71 -8.71 -8.76 -8.65 -8.66 -8.69 -8.70 -8.64 -8.63 -8.59 -8.56 -8.55 -8.53 -8.52 -8.51 -8.48 -8.49 -8.47 -8.50 -8.46 -8.42 -8.41 -8.37 -8.33 -8.31 -8.27 -8.27 -8.19 -8.19 -8.16 -8.14 -8.12 -8.11 -8.07 -8.01 -7.94 -7.87 -7.81 -7.78 -7.76 -7.74 -7.72 -7.70 -7.70 -7.74 -7.75 -7.72 -7.69 -7.65 -7.60 -7.57 -7.54 -7.49 -7.46 -7.42 -7.37 -7.31 -7.20 -7.10 -6.99 -6.88 -6.77 -6.70 -6.82 -6.94 -7.05 -7.13 -7.21 -7.28 -7.25 -7.21 -7.16 -7.12 -7.07 -7.02 -6.97 -7.02 -7.04 -7.05 -7.09 -7.12 -7.17 -7.20 -7.14 -7.06 -6.95 -6.84 -6.77 -6.69 -6.71 -6.72 -6.73 -6.72 -6.71 -6.70 -6.71 -6.76 -6.82 -6.85 -6.89 -6.94 -6.97 -7.01 -7.04 -7.06 -7.08 -7.11 -7.13 -7.15 -7.16 -7.18 -7.21 -7.22 -7.23 -7.18 -7.18 -7.18 -7.16 -7.12 -7.12 -7.13 -7.14 -7.14 -7.14 -7.12 -7.15 -7.17 -7.20 -7.23 -7.27 -7.32 -7.37 -7.39 -7.37 -7.39 -7.41 -7.42 -7.44 -7.41 -7.39 -7.36 -7.29 -7.19 -7.15 -7.23 -7.17 -7.32 -7.34 -7.32 -7.31 -7.29 -7.27 -7.29 -7.26 -7.25 -7.26 -7.23 -7.22 -7.21 -7.20 -7.27 -7.25 -7.23 -7.29 -7.28 -7.31 -7.32 -7.33 -7.35 -7.39 -7.38 -7.42 -7.46 -7.51 -7.54 -7.54 -7.55 -7.55 -7.59 -7.63 -7.64 -7.68 -7.70 -7.70 -7.74 -7.76 -7.81 -7.88 -7.89 -7.93 -7.97 -8.00 -8.04 -8.04 -8.06 -8.10 -8.11 -8.12 -8.14 -8.15 -8.15 -8.19 -8.23 -8.22 -8.24 -8.23 -8.19 -8.26 -8.26 -8.28 -8.30 -8.30 -8.30 -8.26 -8.28 -8.26 -8.26 -8.27 -8.23 -8.22 -8.23 -8.21 -8.17 -8.15 -8.11 -8.07 -8.05 -7.99 -8.01 -7.97 -8.02 -8.01 -7.98 -8.02 -7.99 -7.95 -7.94 -7.89 -7.95 -7.93 -7.92 -7.91 -7.90 -7.90 -7.90 -7.91 -7.91 -7.91 -7.90 -7.92 -7.91 -7.87 -7.84 -7.85 -7.77 -7.74 -7.77 -7.77 -7.73 -7.76 -7.78 -7.77 -7.76 -7.79 -7.86 -7.85 -7.90 -7.91 -7.85 -7.87 -7.88 -7.90 -7.95 -7.98 -8.03 -8.11 -8.14 -8.18 -8.20 -8.21 -8.20 -8.23 -8.22 -8.20 -8.26 -8.28 -8.25 -8.30 -8.30 -8.26 -8.30 -8.29 -8.27 -8.30 -8.33 -8.40 -8.31 -8.31 -8.32 -8.39 -8.41 -8.45 -8.46 -8.46 -8.48 -8.49 -8.51 -8.55 -8.57 -8.56 -8.57 -8.58 -8.58 -8.58 -8.57 -8.56 -8.57 -8.55 -8.52 -8.51 -8.52 -8.55 -8.58 -8.59 -8.60 -8.62 -8.62 -8.61 -8.62 -8.63 -8.60 -8.62 -8.67 -8.69 -8.71 -8.70 -8.81 -8.84
-9.66 -9.49 -9.28 -9.29 -9.23 -9.22 -9.17 -9.10 -9.10 -9.04 -8.95 -8.94 -8.97 -8.98 -8.95 -8.91 -8.85 -8.92 -8.86 -8.84 -8.88 -8.82 -8.74 -8.72 -8.65 -8.58 -8.53 -8.59 -8.63 -8.49 -8.34 -8.41 -8.50 -8.61 -8.70 -8.68 -8.55 -8.54 -8.59 -8.55 -8.56 -8.52 -8.46 -8.47 -8.49 -8.48 -8.50 -8.50 -8.46 -8.41 -8.42 -8.41 -8.41 -8.37 -8.34 -8.31 -8.34 -8.33 -8.31 -8.24 -8.22 -8.18 -8.16 -8.16 -8.15 -8.10 -8.08 -8.06 -8.05 -8.03 -8.00 -7.98 -7.94 -7.86 -7.80 -7.70 -7.58 -7.50 -7.47 -7.50 -7.54 -7.55 -7.57 -7.60 -7.63 -7.65 -7.61 -7.59 -7.57 -7.55 -7.52 -7.48 -7.45 -7.38 -7.30 -7.24 -7.18 -7.11 -7.03 -6.98 -6.92 -6.86 -6.83 -6.90 -6.96 -7.02 -7.06 -7.09 -7.14 -7.14 -7.10 -7.05 -7.02 -6.98 -6.94 -6.91 -6.93 -6.99 -7.00 -7.03 -7.05 -7.07 -7.08 -7.02 -6.96 -6.88 -6.82 -6.77 -6.70 -6.71 -6.70 -6.68 -6.68 -6.67 -6.66 -6.67 -6.71 -6.74 -6.79 -6.83 -6.87 -6.91 -6.95 -6.97 -6.99 -7.01 -7.06 -7.08 -7.12 -7.15 -7.17 -7.18 -7.18 -7.18 -7.13 -7.12 -7.10 -7.08 -7.08 -7.06 -7.07 -7.08 -7.11 -7.11 -7.12 -7.10 -7.10 -7.11 -7.12 -7.18 -7.23 -7.25 -7.27 -7.26 -7.26 -7.27 -7.25 -7.28 -7.23 -7.20 -7.17 -7.16 -7.16 -7.12 -7.01 -7.06 -7.15 -7.17 -7.17 -7.22 -7.24 -7.22 -7.19 -7.17 -7.19 -7.18 -7.18 -7.16 -7.15 -7.15 -7.18 -7.19 -7.21 -7.23 -7.17 -7.24 -7.26 -7.27 -7.31 -7.30 -7.32 -7.36 -7.37 -7.38 -7.42 -7.46 -7.51 -7.53 -7.52 -7.56 -7.58 -7.61 -7.62 -7.65 -7.68 -7.67 -7.72 -7.71 -7.79 -7.83 -7.85 -7.88 -7.94 -7.95 -7.99 -7.99 -8.02 -8.06 -8.08 -8.05 -8.08 -8.10 -8.13 -8.16 -8.20 -8.17 -8.18 -8.17 -8.15 -8.18 -8.19 -8.22 -8.24 -8.22 -8.25 -8.18 -8.17 -8.17 -8.13 -8.17 -8.13 -8.11 -8.08 -8.05 -8.03 -8.01 -7.98 -7.94 -7.93 -7.90 -7.91 -7.88 -7.90 -7.88 -7.90 -7.92 -7.89 -7.86 -7.87 -7.87 -7.87 -7.87 -7.83 -7.84 -7.84 -7.84 -7.86 -7.89 -7.87 -7.85 -7.81 -7.80 -7.80 -7.73 -7.75 -7.75 -7.67 -7.69 -7.73 -7.74 -7.72 -7.74 -7.76 -7.77 -7.78 -7.88 -7.96 -7.93 -7.90 -7.89 -7.87 -7.90 -7.91 -7.96 -8.01 -8.05 -8.09 -8.12 -8.15 -8.16 -8.20 -8.19 -8.20 -8.24 -8.23 -8.23 -8.24 -8.31 -8.23 -8.29 -8.22 -8.26 -8.26 -8.24 -8.27 -8.30 -8.37 -8.32 -8.29 -8.33 -8.36 -8.41 -8.44 -8.46 -8.48 -8.47 -8.49 -8.51 -8.54 -8.56 -8.54 -8.55 -8.57 -8.56 -8.56 -8.55 -8.53 -8.51 -8.52 -8.49 -8.50 -8.52 -8.54 -8.55 -8.58 -8.59 -8.61 -8.62 -8.61 -8.62 -8.63 -8.61 -8.62 -8.67 -8.70 -8.73 -8.77 -8.78
-9.37 -9.20 -9.12 -9.05 -9.03 -8.93 -8.83 -8.80 -8.78 -8.64 -8.55 -8.57 -8.61 -8.60 -8.58 -8.57 -8.59 -8.54 -8.53 -8.58 -8.59 -8.55 -8.47 -8.47 -8.47 -8.44 -8.47 -8.48 -8.32 -8.25 -8.17 -8.21 -8.26 -8.36 -8.30 -8.22 -8.21 -8.23 -8.30 -8.30 -8.29 -8.32 -8.28 -8.30 -8.31 -8.31 -8.37 -8.39 -8.30 -8.30 -8.25 -8.25 -8.22 -8.20 -8.18 -8.17 -8.19 -8.13 -8.09 -8.07 -8.08 -8.03 -7.99 -7.98 -7.97 -7.96 -7.92 -7.91 -7.88 -7.85 -7.79 -7.76 -7.73 -7.65 -7.56 -7.45 -7.36 -7.27 -7.28 -7.31 -7.35 -7.39 -7.41 -7.45 -7.49 -7.52 -7.50 -7.47 -7.45 -7.44 -7.42 -7.39 -7.33 -7.27 -7.21 -7.14 -7.09 -7.05 -7.01 -6.98 -6.94 -6.91 -6.90 -6.94 -6.97 -6.98 -7.01 -7.02 -7.01 -6.99 -6.95 -6.91 -6.88 -6.86 -6.83 -6.79 -6.84 -6.86 -6.90 -6.93 -6.97 -7.01 -7.02 -6.97 -6.91 -6.84 -6.77 -6.69 -6.68 -6.68 -6.69 -6.70 -6.71 -6.72 -6.72 -6.72 -6.74 -6.76 -6.77 -6.80 -6.85 -6.89 -6.89 -6.94 -6.97 -6.98 -7.00 -7.02 -7.06 -7.10 -7.14 -7.18 -7.22 -7.26 -7.26 -7.21 -7.16 -7.08 -7.02 -7.01 -7.01 -7.02 -7.06 -7.08 -7.09 -7.10 -7.10 -7.10 -7.10 -7.08 -7.10 -7.11 -7.13 -7.14 -7.14 -7.13 -7.13 -7.08 -7.04 -7.02 -7.01 -6.97 -6.97 -6.97 -6.97 -7.01 -7.04 -7.01 -7.06 -7.11 -7.10 -7.13 -7.11 -7.11 -7.10 -7.09 -7.09 -7.09 -7.10 -7.11 -7.10 -7.09 -7.14 -7.16 -7.17 -7.18 -7.22 -7.22 -7.24 -7.27 -7.28 -7.30 -7.29 -7.32 -7.36 -7.36 -7.40 -7.43 -7.46 -7.51 -7.55 -7.55 -7.56 -7.58 -7.60 -7.62 -7.65 -7.64 -7.69 -7.73 -7.76 -7.74 -7.82 -7.87 -7.88 -7.89 -7.95 -7.96 -7.95 -7.98 -8.00 -7.97 -8.02 -8.06 -8.09 -8.12 -8.12 -8.10 -8.12 -8.11 -8.09 -8.09 -8.13 -8.17 -8.17 -8.13 -8.11 -8.08 -8.07 -8.04 -8.02 -8.06 -8.01 -7.98 -7.96 -7.94 -7.91 -7.84 -7.83 -7.83 -7.83 -7.83 -7.83 -7.81 -7.79 -7.81 -7.82 -7.82 -7.80 -7.79 -7.78 -7.80 -7.78 -7.78 -7.78 -7.78 -7.80 -7.80 -7.81 -7.82 -7.79 -7.74 -7.72 -7.71 -7.68 -7.63 -7.68 -7.71 -7.65 -7.68 -7.69 -7.72 -7.74 -7.74 -7.77 -7.78 -7.81 -7.90 -7.94 -7.91 -7.89 -7.88 -7.90 -7.93 -7.96 -7.99 -8.03 -8.05 -8.10 -8.10 -8.15 -8.15 -8.19 -8.17 -8.22 -8.26 -8.25 -8.25 -8.23 -8.26 -8.21 -8.24 -8.20 -8.23 -8.22 -8.25 -8.28 -8.30 -8.38 -8.38 -8.34 -8.40 -8.42 -8.44 -8.46 -8.46 -8.48 -8.49 -8.50 -8.52 -8.55 -8.54 -8.52 -8.55 -8.56 -8.53 -8.51 -8.49 -8.47 -8.46 -8.48 -8.50 -8.53 -8.54 -8.56 -8.56 -8.59 -8.60 -8.63 -8.62 -8.63 -8.64 -8.64 -8.64 -8.69 -8.71 -8.74 -8.79
-8.88 -8.85 -8.73 -8.75 -8.59 -8.48 -8.42 -8.39 -8.31 -8.24 -8.21 -8.14 -8.11 -8.12 -8.23 -8.19 -8.18 -8.16 -8.15 -8.19 -8.22 -8.24 -8.24 -8.20 -8.21 -8.18 -8.22 -8.26 -8.17 -8.13 -7.99 -7.95 -8.02 -8.00 -7.91 -7.87 -7.95 -7.97 -7.98 -7.97 -8.00 -8.01 -8.02 -8.04 -8.07 -8.14 -8.15 -8.15 -8.10 -8.08 -8.09 -8.11 -8.12 -8.07 -8.02 -7.96 -8.01 -7.98 -7.95 -7.89 -7.85 -7.86 -7.87 -7.81 -7.79 -7.76 -7.75 -7.72 -7.69 -7.67 -7.62 -7.57 -7.51 -7.42 -7.33 -7.25 -7.19 -7.13 -7.18 -7.23 -7.26 -7.28 -7.33 -7.36 -7.39 -7.40 -7.38 -7.36 -7.34 -7.30 -7.29 -7.26 -7.21 -7.17 -7.13 -7.08 -7.04 -7.02 -7.00 -6.98 -6.97 -6.95 -6.93 -6.92 -6.91 -6.90 -6.87 -6.86 -6.84 -6.82 -6.80 -6.78 -6.77 -6.76 -6.75 -6.76 -6.76 -6.78 -6.80 -6.83 -6.86 -6.89 -6.91 -6.90 -6.85 -6.84 -6.80 -6.73 -6.72 -6.71 -6.72 -6.70 -6.67 -6.66 -6.66 -6.68 -6.70 -6.72 -6.73 -6.74 -6.77 -6.80 -6.81 -6.85 -6.87 -6.90 -6.92 -6.94 -6.96 -6.97 -6.99 -7.01 -7.00 -7.02 -7.05 -7.08 -7.11 -7.11 -7.08 -7.03 -6.99 -6.95 -6.97 -7.00 -7.02 -7.01 -7.03 -7.02 -7.02 -7.03 -7.03 -7.06 -7.05 -7.03 -7.01 -7.02 -7.00 -6.91 -6.85 -6.78 -6.74 -6.72 -6.75 -6.74 -6.82 -6.88 -6.92 -6.94 -6.94 -7.00 -7.01 -7.03 -7.03 -7.02 -7.02 -7.02 -7.03 -6.99 -7.02 -7.03 -7.04 -7.07 -7.04 -7.02 -7.11 -7.14 -7.17 -7.18 -7.19 -7.20 -7.23 -7.24 -7.26 -7.28 -7.30 -7.30 -7.33 -7.36 -7.35 -7.42 -7.43 -7.48 -7.51 -7.57 -7.60 -7.56 -7.57 -7.62 -7.61 -7.64 -7.67 -7.69 -7.68 -7.75 -7.76 -7.80 -7.80 -7.83 -7.86 -7.91 -7.90 -7.92 -7.94 -7.92 -7.95 -8.00 -8.01 -8.05 -8.04 -8.02 -8.05 -8.05 -8.03 -8.01 -8.05 -8.06 -8.06 -8.02 -7.97 -7.97 -7.97 -7.95 -7.94 -7.94 -7.89 -7.87 -7.84 -7.82 -7.78 -7.79 -7.76 -7.78 -7.76 -7.75 -7.77 -7.75 -7.73 -7.74 -7.74 -7.75 -7.71 -7.73 -7.74 -7.72 -7.72 -7.74 -7.73 -7.74 -7.73 -7.72 -7.71 -7.72 -7.69 -7.63 -7.60 -7.62 -7.59 -7.61 -7.64 -7.65 -7.64 -7.68 -7.70 -7.74 -7.76 -7.74 -7.78 -7.80 -7.82 -7.88 -7.92 -7.89 -7.90 -7.89 -7.94 -7.97 -7.98 -8.02 -8.02 -8.05 -8.10 -8.12 -8.16 -8.19 -8.21 -8.22 -8.25 -8.25 -8.21 -8.20 -8.21 -8.21 -8.21 -8.19 -8.20 -8.19 -8.22 -8.33 -8.34 -8.35 -8.38 -8.42 -8.42 -8.44 -8.45 -8.46 -8.47 -8.48 -8.48 -8.50 -8.50 -8.54 -8.53 -8.50 -8.45 -8.52 -8.49 -8.47 -8.43 -8.43 -8.46 -8.48 -8.50 -8.53 -8.52 -8.56 -8.55 -8.59 -8.60 -8.64 -8.62 -8.63 -8.65 -8.65 -8.67 -8.68 -8.71 -8.75
-8.35 -8.38 -8.29 -8.16 -8.06 -8.09 -7.98 -7.94 -7.88 -7.85 -7.80 -7.74 -7.64 -7.71 -7.75 -7.79 -7.77 -7.77 -7.82 -7.85 -7.91 -7.94 -7.89 -7.87 -7.87 -7.94 -7.97 -8.09 -7.99 -7.90 -7.84 -7.77 -7.77 -7.66 -7.69 -7.69 -7.66 -7.67 -7.69 -7.67 -7.70 -7.73 -7.77 -7.81 -7.84 -7.87 -7.88 -7.89 -7.86 -7.90 -7.89 -7.80 -7.85 -7.79 -7.76 -7.69 -7.76 -7.78 -7.72 -7.73 -7.69 -7.65 -7.65 -7.64 -7.65 -7.60 -7.62 -7.58 -7.54 -7.49 -7.41 -7.34 -7.26 -7.12 -7.04 -7.01 -7.02 -7.05 -7.11 -7.16 -7.19 -7.20 -7.20 -7.25 -7.29 -7.29 -7.27 -7.23 -7.21 -7.19 -7.18 -7.15 -7.11 -7.08 -7.05 -7.02 -6.99 -6.96 -6.95 -6.94 -6.92 -6.91 -6.90 -6.88 -6.84 -6.81 -6.77 -6.70 -6.64 -6.54 -6.53 -6.53 -6.55 -6.59 -6.63 -6.67 -6.68 -6.68 -6.68 -6.68 -6.67 -6.69 -6.73 -6.78 -6.80 -6.80 -6.81 -6.83 -6.82 -6.79 -6.77 -6.75 -6.73 -6.74 -6.75 -6.73 -6.70 -6.70 -6.70 -6.70 -6.71 -6.73 -6.71 -6.73 -6.73 -6.75 -6.78 -6.80 -6.82 -6.85 -6.87 -6.90 -6.94 -6.94 -6.93 -6.96 -6.99 -7.01 -6.98 -7.00 -7.00 -6.94 -6.92 -6.89 -6.90 -6.91 -6.92 -6.92 -6.90 -6.88 -6.87 -6.88 -6.92 -6.91 -6.90 -6.90 -6.90 -6.79 -6.62 -6.53 -6.49 -6.45 -6.39 -6.53 -6.71 -6.80 -6.79 -6.88 -6.89 -6.89 -6.88 -6.86 -6.90 -6.94 -6.94 -6.93 -6.92 -6.93 -6.95 -6.96 -6.97 -6.97 -6.99 -7.01 -7.01 -7.02 -7.07 -7.11 -7.16 -7.18 -7.19 -7.19 -7.21 -7.22 -7.24 -7.26 -7.29 -7.27 -7.32 -7.34 -7.39 -7.41 -7.45 -7.50 -7.49 -7.51 -7.57 -7.57 -7.56 -7.59 -7.59 -7.60 -7.64 -7.64 -7.64 -7.69 -7.72 -7.73 -7.74 -7.79 -7.83 -7.86 -7.83 -7.87 -7.88 -7.86 -7.88 -7.95 -7.94 -7.97 -7.96 -7.95 -7.97 -7.98 -7.95 -7.92 -7.94 -7.96 -7.95 -7.91 -7.87 -7.89 -7.86 -7.84 -7.83 -7.83 -7.77 -7.75 -7.75 -7.71 -7.71 -7.68 -7.73 -7.70 -7.69 -7.69 -7.70 -7.67 -7.66 -7.67 -7.65 -7.67 -7.65 -7.67 -7.68 -7.68 -7.68 -7.67 -7.65 -7.65 -7.63 -7.61 -7.59 -7.64 -7.58 -7.56 -7.57 -7.57 -7.56 -7.58 -7.62 -7.65 -7.68 -7.70 -7.73 -7.76 -7.74 -7.75 -7.78 -7.82 -7.84 -7.87 -7.88 -7.87 -7.90 -7.93 -7.97 -8.00 -7.99 -8.01 -8.01 -8.08 -8.15 -8.20 -8.21 -8.24 -8.22 -8.18 -8.23 -8.19 -8.16 -8.17 -8.17 -8.15 -8.17 -8.15 -8.17 -8.22 -8.24 -8.31 -8.36 -8.39 -8.38 -8.39 -8.43 -8.44 -8.46 -8.48 -8.50 -8.49 -8.48 -8.52 -8.49 -8.50 -8.47 -8.43 -8.49 -8.46 -8.43 -8.43 -8.44 -8.46 -8.48 -8.50 -8.52 -8.54 -8.56 -8.57 -8.55 -8.58 -8.61 -8.61 -8.61 -8.65 -8.66 -8.68 -8.69 -8.74
-7.83 -7.77 -7.75 -7.73 -7.66 -7.62 -7.56 -7.49 -7.48 -7.42 -7.33 -7.30 -7.25 -7.20 -7.29 -7.40 -7.39 -7.40 -7.39 -7.49 -7.51 -7.54 -7.54 -7.57 -7.61 -7.59 -7.72 -7.78 -7.74 -7.60 -7.57 -7.47 -7.48 -7.57 -7.50 -7.41 -7.34 -7.34 -7.33 -7.33 -7.39 -7.44 -7.48 -7.52 -7.56 -7.60 -7.57 -7.67 -7.67 -7.61 -7.64 -7.55 -7.57 -7.70 -7.60 -7.49 -7.50 -7.50 -7.53 -7.52 -7.53 -7.51 -7.53 -7.45 -7.44 -7.45 -7.46 -7.41 -7.37 -7.34 -7.22 -7.07 -6.98 -6.85 -6.82 -6.81 -6.81 -6.89 -6.97 -7.04 -7.03 -7.09 -7.11 -7.16 -7.17 -7.16 -7.13 -7.11 -7.11 -7.10 -7.07 -7.06 -7.07 -7.04 -7.01 -6.99 -6.96 -6.95 -6.92 -6.91 -6.89 -6.87 -6.86 -6.85 -6.76 -6.67 -6.59 -6.46 -6.36 -6.23 -6.25 -6.26 -6.30 -6.37 -6.50 -6.63 -6.63 -6.62 -6.60 -6.59 -6.57 -6.55 -6.58 -6.62 -6.66 -6.69 -6.71 -6.70 -6.70 -6.69 -6.66 -6.64 -6.63 -6.61 -6.59 -6.59 -6.62 -6.62 -6.64 -6.62 -6.62 -6.59 -6.63 -6.67 -6.69 -6.72 -6.73 -6.73 -6.74 -6.77 -6.79 -6.82 -6.84 -6.84 -6.87 -6.89 -6.89 -6.90 -6.91 -6.88 -6.88 -6.88 -6.89 -6.84 -6.82 -6.84 -6.83 -6.82 -6.81 -6.82 -6.84 -6.82 -6.81 -6.78 -6.77 -6.81 -6.74 -6.70 -6.61 -6.52 -6.28 -6.05 -6.00 -6.29 -6.45 -6.62 -6.78 -6.86 -6.78 -6.85 -6.82 -6.81 -6.79 -6.80 -6.79 -6.79 -6.82 -6.86 -6.88 -6.87 -6.87 -6.93 -6.92 -6.90 -6.95 -6.99 -7.03 -7.02 -7.03 -7.11 -7.12 -7.18 -7.17 -7.18 -7.18 -7.20 -7.19 -7.23 -7.27 -7.30 -7.32 -7.34 -7.38 -7.43 -7.46 -7.48 -7.51 -7.51 -7.52 -7.54 -7.55 -7.55 -7.57 -7.55 -7.59 -7.60 -7.62 -7.63 -7.68 -7.71 -7.73 -7.76 -7.80 -7.83 -7.77 -7.81 -7.82 -7.80 -7.81 -7.88 -7.87 -7.89 -7.88 -7.84 -7.85 -7.84 -7.84 -7.83 -7.85 -7.86 -7.85 -7.83 -7.79 -7.79 -7.77 -7.75 -7.75 -7.72 -7.67 -7.64 -7.64 -7.64 -7.63 -7.64 -7.63 -7.61 -7.60 -7.61 -7.63 -7.60 -7.60 -7.60 -7.59 -7.61 -7.62 -7.61 -7.62 -7.60 -7.61 -7.59 -7.57 -7.56 -7.54 -7.51 -7.51 -7.56 -7.54 -7.53 -7.53 -7.53 -7.57 -7.61 -7.66 -7.69 -7.67 -7.74 -7.74 -7.75 -7.75 -7.75 -7.75 -7.82 -7.86 -7.88 -7.88 -7.92 -7.93 -7.97 -8.00 -8.00 -8.04 -8.07 -8.08 -8.13 -8.21 -8.27 -8.24 -8.18 -8.17 -8.14 -8.17 -8.16 -8.15 -8.13 -8.12 -8.12 -8.14 -8.18 -8.21 -8.25 -8.30 -8.35 -8.36 -8.38 -8.40 -8.41 -8.42 -8.44 -8.46 -8.47 -8.48 -8.49 -8.48 -8.46 -8.46 -8.44 -8.43 -8.44 -8.44 -8.44 -8.45 -8.45 -8.48 -8.48 -8.50 -8.52 -8.55 -8.55 -8.56 -8.55 -8.56 -8.58 -8.59 -8.58 -8.62 -8.69 -8.70 -8.73
-7.21 -7.13 -7.20 -7.16 -7.13 -7.10 -7.11 -7.05 -7.00 -6.99 -6.91 -7.01 -6.87 -7.06 -6.99 -7.14 -6.98 -7.00 -7.07 -7.09 -7.12 -7.14 -7.19 -7.24 -7.29 -7.31 -7.35 -7.33 -7.37 -7.27 -7.23 -7.31 -7.33 -7.30 -7.21 -7.14 -7.09 -7.10 -7.07 -7.09 -7.09 -7.15 -7.20 -7.21 -7.26 -7.31 -7.38 -7.36 -7.40 -7.37 -7.35 -7.29 -7.31 -7.42 -7.40 -7.36 -7.31 -7.32 -7.29 -7.36 -7.34 -7.29 -7.28 -7.32 -7.30 -7.27 -7.34 -7.28 -7.16 -7.03 -6.96 -6.85 -6.75 -6.60 -6.51 -6.57 -6.68 -6.75 -6.85 -6.94 -6.95 -6.99 -7.02 -7.06 -7.07 -7.04 -7.05 -7.03 -7.01 -7.00 -7.00 -6.99 -6.98 -6.97 -6.94 -6.93 -6.91 -6.89 -6.86 -6.84 -6.81 -6.79 -6.76 -6.73 -6.65 -6.47 -6.30 -6.16 -5.99 -5.86 -5.96 -6.06 -6.17 -6.29 -6.40 -6.49 -6.52 -6.55 -6.56 -6.57 -6.59 -6.60 -6.61 -6.63 -6.63 -6.64 -6.65 -6.66 -6.67 -6.66 -6.65 -6.60 -6.57 -6.54 -6.52 -6.51 -6.52 -6.53 -6.54 -6.51 -6.52 -6.52 -6.54 -6.57 -6.59 -6.61 -6.62 -6.64 -6.65 -6.67 -6.71 -6.74 -6.77 -6.82 -6.80 -6.77 -6.75 -6.79 -6.82 -6.81 -6.78 -6.78 -6.73 -6.74 -6.79 -6.76 -6.75 -6.75 -6.74 -6.75 -6.76 -6.73 -6.73 -6.74 -6.71 -6.71 -6.68 -6.63 -6.58 -6.51 -6.45 -6.33 -6.25 -6.10 -6.11 -6.38 -6.58 -6.72 -6.85 -6.91 -6.86 -6.73 -6.72 -6.70 -6.69 -6.66 -6.70 -6.74 -6.75 -6.77 -6.84 -6.85 -6.84 -6.88 -6.87 -6.87 -6.92 -6.93 -7.02 -7.01 -7.03 -7.07 -7.09 -7.10 -7.12 -7.14 -7.15 -7.16 -7.19 -7.20 -7.24 -7.29 -7.34 -7.38 -7.37 -7.42 -7.43 -7.45 -7.47 -7.49 -7.50 -7.51 -7.53 -7.52 -7.53 -7.49 -7.55 -7.57 -7.60 -7.64 -7.66 -7.69 -7.71 -7.72 -7.76 -7.76 -7.74 -7.76 -7.76 -7.74 -7.75 -7.82 -7.80 -7.77 -7.75 -7.74 -7.73 -7.70 -7.72 -7.75 -7.77 -7.77 -7.75 -7.75 -7.71 -7.70 -7.66 -7.63 -7.62 -7.58 -7.58 -7.56 -7.55 -7.56 -7.55 -7.56 -7.55 -7.54 -7.52 -7.54 -7.55 -7.54 -7.55 -7.54 -7.58 -7.58 -7.57 -7.54 -7.54 -7.53 -7.51 -7.51 -7.50 -7.48 -7.47 -7.48 -7.49 -7.51 -7.50 -7.53 -7.57 -7.61 -7.62 -7.65 -7.69 -7.72 -7.70 -7.75 -7.73 -7.74 -7.74 -7.74 -7.74 -7.79 -7.87 -7.90 -7.93 -7.96 -7.95 -8.00 -8.04 -8.06 -8.12 -8.14 -8.16 -8.16 -8.20 -8.22 -8.18 -8.11 -8.09 -8.11 -8.13 -8.10 -8.12 -8.11 -8.14 -8.13 -8.19 -8.21 -8.26 -8.31 -8.33 -8.36 -8.39 -8.38 -8.39 -8.41 -8.44 -8.45 -8.47 -8.46 -8.44 -8.44 -8.43 -8.42 -8.40 -8.42 -8.43 -8.46 -8.46 -8.46 -8.47 -8.49 -8.49 -8.49 -8.52 -8.54 -8.51 -8.54 -8.56 -8.54 -8.54 -8.57 -8.60 -8.63 -8.67 -8.71
-6.61 -6.58 -6.63 -6.65 -6.68 -6.70 -6.69 -6.60 -6.54 -6.57 -6.45 -6.47 -6.52 -6.51 -6.47 -6.55 -6.55 -6.61 -6.64 -6.70 -6.72 -6.80 -6.86 -6.88 -6.90 -6.90 -6.90 -6.93 -6.95 -6.96 -6.99 -6.99 -6.97 -6.92 -6.87 -6.88 -6.84 -6.81 -6.81 -6.82 -6.85 -6.88 -6.89 -6.94 -6.99 -6.99 -6.99 -7.08 -7.03 -7.11 -7.11 -7.04 -7.04 -6.98 -7.13 -7.16 -7.16 -7.15 -7.12 -7.10 -7.14 -7.16 -7.14 -7.09 -7.13 -7.11 -7.06 -7.01 -6.97 -6.90 -6.81 -6.68 -6.55 -6.47 -6.40 -6.48 -6.57 -6.66 -6.77 -6.83 -6.87 -6.90 -6.91 -6.93 -6.94 -6.88 -6.87 -6.88 -6.88 -6.88 -6.89 -6.89 -6.90 -6.89 -6.91 -6.91 -6.91 -6.87 -6.83 -6.80 -6.78 -6.73 -6.67 -6.60 -6.47 -6.31 -6.13 -5.97 -5.83 -5.67 -5.74 -5.87 -5.99 -6.09 -6.17 -6.26 -6.31 -6.35 -6.37 -6.40 -6.43 -6.46 -6.48 -6.49 -6.50 -6.50 -6.51 -6.52 -6.52 -6.52 -6.50 -6.50 -6.48 -6.49 -6.51 -6.51 -6.49 -6.47 -6.48 -6.49 -6.46 -6.47 -6.50 -6.53 -6.52 -6.52 -6.52 -6.55 -6.56 -6.63 -6.64 -6.66 -6.65 -6.67 -6.68 -6.68 -6.69 -6.69 -6.68 -6.66 -6.69 -6.67 -6.66 -6.64 -6.67 -6.64 -6.66 -6.68 -6.69 -6.69 -6.68 -6.68 -6.65 -6.65 -6.65 -6.63 -6.65 -6.57 -6.50 -6.43 -6.36 -6.32 -6.32 -6.33 -6.34 -6.33 -6.29 -6.49 -6.68 -6.77 -6.80 -6.81 -6.79 -6.73 -6.62 -6.58 -6.56 -6.63 -6.65 -6.69 -6.76 -6.79 -6.78 -6.81 -6.80 -6.84 -6.84 -6.86 -6.89 -6.90 -6.97 -7.01 -7.01 -7.02 -7.05 -7.05 -7.06 -7.06 -7.10 -7.10 -7.15 -7.19 -7.20 -7.25 -7.31 -7.38 -7.37 -7.39 -7.40 -7.41 -7.40 -7.43 -7.45 -7.49 -7.50 -7.48 -7.50 -7.46 -7.54 -7.56 -7.59 -7.62 -7.64 -7.64 -7.65 -7.68 -7.73 -7.69 -7.69 -7.72 -7.70 -7.67 -7.68 -7.70 -7.66 -7.63 -7.62 -7.61 -7.64 -7.62 -7.65 -7.68 -7.69 -7.69 -7.66 -7.65 -7.61 -7.57 -7.56 -7.53 -7.51 -7.49 -7.47 -7.48 -7.47 -7.48 -7.48 -7.48 -7.47 -7.46 -7.44 -7.47 -7.48 -7.49 -7.52 -7.51 -7.48 -7.49 -7.49 -7.47 -7.46 -7.44 -7.41 -7.44 -7.45 -7.45 -7.44 -7.46 -7.47 -7.50 -7.53 -7.56 -7.61 -7.66 -7.70 -7.69 -7.70 -7.72 -7.71 -7.75 -7.75 -7.74 -7.73 -7.77 -7.76 -7.87 -7.90 -7.92 -7.96 -8.00 -8.00 -8.05 -8.09 -8.13 -8.22 -8.15 -8.14 -8.13 -8.17 -8.15 -8.10 -8.07 -8.02 -8.08 -8.10 -8.10 -8.10 -8.13 -8.13 -8.21 -8.22 -8.29 -8.31 -8.32 -8.35 -8.36 -8.38 -8.40 -8.42 -8.43 -8.43 -8.45 -8.43 -8.40 -8.39 -8.39 -8.36 -8.41 -8.44 -8.44 -8.46 -8.47 -8.49 -8.48 -8.49 -8.53 -8.52 -8.51 -8.51 -8.51 -8.51 -8.54 -8.54 -8.54 -8.57 -8.63 -8.64 -8.67
-5.94 -5.99 -6.05 -6.09 -6.13 -6.20 -6.17 -6.07 -6.09 -6.07 -6.06 -6.03 -6.04 -6.02 -6.01 -6.05 -6.09 -6.14 -6.17 -6.25 -6.28 -6.43 -6.49 -6.49 -6.51 -6.48 -6.50 -6.56 -6.59 -6.61 -6.59 -6.56 -6.57 -6.59 -6.61 -6.56 -6.54 -6.52 -6.53 -6.53 -6.61 -6.55 -6.58 -6.59 -6.69 -6.67 -6.66 -6.74 -6.79 -6.85 -6.74 -6.76 -6.75 -6.82 -6.93 -6.90 -6.88 -6.87 -6.89 -6.93 -6.87 -6.91 -6.99 -6.97 -6.92 -6.87 -6.88 -6.94 -6.91 -6.79 -6.66 -6.57 -6.47 -6.40 -6.31 -6.35 -6.46 -6.58 -6.66 -6.73 -6.78 -6.78 -6.78 -6.79 -6.78 -6.75 -6.74 -6.73 -6.73 -6.73 -6.73 -6.74 -6.79 -6.78 -6.80 -6.80 -6.78 -6.74 -6.71 -6.67 -6.62 -6.58 -6.54 -6.50 -6.39 -6.29 -6.19 -6.09 -5.99 -5.89 -5.89 -5.92 -5.95 -5.98 -6.00 -6.02 -6.07 -6.12 -6.18 -6.23 -6.29 -6.35 -6.37 -6.37 -6.38 -6.39 -6.39 -6.39 -6.41 -6.44 -6.45 -6.47 -6.46 -6.44 -6.45 -6.46 -6.45 -6.45 -6.43 -6.42 -6.39 -6.41 -6.42 -6.41 -6.44 -6.45 -6.46 -6.47 -6.49 -6.53 -6.56 -6.59 -6.64 -6.60 -6.59 -6.54 -6.53 -6.50 -6.55 -6.57 -6.57 -6.58 -6.59 -6.59 -6.55 -6.58 -6.60 -6.63 -6.63 -6.58 -6.59 -6.62 -6.61 -6.59 -6.57 -6.56 -6.54 -6.54 -6.53 -6.49 -6.43 -6.32 -6.26 -6.27 -6.31 -6.33 -6.38 -6.40 -6.52 -6.58 -6.64 -6.68 -6.67 -6.67 -6.69 -6.66 -6.65 -6.58 -6.60 -6.64 -6.72 -6.71 -6.76 -6.76 -6.74 -6.77 -6.78 -6.80 -6.79 -6.81 -6.85 -6.87 -6.90 -6.96 -6.95 -6.97 -6.98 -6.98 -6.98 -7.00 -7.04 -7.04 -7.09 -7.16 -7.21 -7.20 -7.21 -7.21 -7.20 -7.23 -7.28 -7.35 -7.35 -7.34 -7.38 -7.42 -7.46 -7.41 -7.43 -7.45 -7.50 -7.53 -7.56 -7.56 -7.58 -7.59 -7.60 -7.65 -7.67 -7.63 -7.63 -7.67 -7.61 -7.54 -7.56 -7.55 -7.52 -7.52 -7.55 -7.55 -7.57 -7.58 -7.57 -7.60 -7.63 -7.57 -7.52 -7.50 -7.48 -7.46 -7.45 -7.42 -7.41 -7.42 -7.39 -7.41 -7.40 -7.40 -7.40 -7.40 -7.40 -7.39 -7.39 -7.40 -7.41 -7.42 -7.43 -7.41 -7.41 -7.38 -7.40 -7.36 -7.39 -7.37 -7.38 -7.40 -7.41 -7.41 -7.43 -7.49 -7.51 -7.53 -7.56 -7.59 -7.67 -7.67 -7.70 -7.68 -7.72 -7.73 -7.73 -7.76 -7.77 -7.77 -7.79 -7.82 -7.78 -7.90 -8.00 -7.95 -8.01 -8.04 -8.05 -8.11 -8.13 -8.09 -8.09 -8.09 -8.09 -8.09 -8.11 -8.10 -8.03 -8.01 -8.02 -8.08 -8.09 -8.10 -8.10 -8.13 -8.22 -8.21 -8.26 -8.29 -8.33 -8.33 -8.35 -8.39 -8.39 -8.40 -8.42 -8.41 -8.37 -8.37 -8.37 -8.34 -8.36 -8.38 -8.40 -8.43 -8.47 -8.47 -8.49 -8.49 -8.50 -8.52 -8.52 -8.53 -8.51 -8.50 -8.50 -8.48 -8.51 -8.57 -8.58 -8.59 -8.63 -8.65
-5.36 -5.45 -5.48 -5.54 -5.57 -5.56 -5.55 -5.60 -5.59 -5.56 -5.60 -5.61 -5.61 -5.59 -5.58 -5.60 -5.67 -5.65 -5.70 -5.81 -5.88 -5.96 -6.12 -6.07 -6.06 -6.06 -6.07 -6.10 -6.14 -6.19 -6.20 -6.20 -6.20 -6.25 -6.25 -6.21 -6.19 -6.18 -6.20 -6.26 -6.23 -6.24 -6.29 -6.32 -6.29 -6.35 -6.44 -6.44 -6.44 -6.45 -6.47 -6.50 -6.54 -6.53 -6.57 -6.57 -6.58 -6.60 -6.60 -6.67 -6.70 -6.73 -6.68 -6.61 -6.59 -6.64 -6.69 -6.69 -6.65 -6.55 -6.46 -6.41 -6.36 -6.28 -6.22 -6.22 -6.32 -6.39 -6.43 -6.49 -6.52 -6.55 -6.58 -6.62 -6.62 -6.57 -6.59 -6.60 -6.60 -6.61 -6.61 -6.62 -6.63 -6.62 -6.65 -6.69 -6.71 -6.67 -6.63 -6.59 -6.55 -6.50 -6.47 -6.42 -6.34 -6.26 -6.19 -6.12 -6.06 -6.00 -5.96 -5.93 -5.90 -5.86 -5.83 -5.80 -5.83 -5.90 -5.99 -6.06 -6.13 -6.21 -6.23 -6.23 -6.22 -6.26 -6.26 -6.26 -6.28 -6.33 -6.32 -6.34 -6.37 -6.39 -6.40 -6.39 -6.40 -6.40 -6.39 -6.38 -6.37 -6.36 -6.37 -6.36 -6.36 -6.37 -6.39 -6.39 -6.40 -6.41 -6.43 -6.48 -6.52 -6.46 -6.43 -6.45 -6.46 -6.45 -6.44 -6.43 -6.45 -6.46 -6.48 -6.47 -6.49 -6.51 -6.53 -6.51 -6.57 -6.58 -6.56 -6.55 -6.55 -6.51 -6.54 -6.53 -6.50 -6.48 -6.45 -6.44 -6.43 -6.39 -6.36 -6.34 -6.28 -6.27 -6.27 -6.30 -6.37 -6.44 -6.50 -6.54 -6.61 -6.61 -6.60 -6.55 -6.57 -6.64 -6.64 -6.66 -6.66 -6.68 -6.67 -6.64 -6.70 -6.70 -6.71 -6.73 -6.76 -6.76 -6.76 -6.77 -6.80 -6.85 -6.85 -6.88 -6.87 -6.89 -6.90 -6.90 -6.89 -6.94 -6.97 -7.00 -7.02 -7.09 -7.15 -7.15 -7.15 -7.19 -7.19 -7.18 -7.21 -7.26 -7.31 -7.29 -7.31 -7.35 -7.37 -7.35 -7.38 -7.42 -7.45 -7.46 -7.48 -7.47 -7.51 -7.54 -7.56 -7.62 -7.59 -7.54 -7.56 -7.56 -7.49 -7.42 -7.45 -7.43 -7.46 -7.47 -7.50 -7.51 -7.52 -7.54 -7.55 -7.50 -7.45 -7.41 -7.37 -7.38 -7.37 -7.38 -7.36 -7.34 -7.33 -7.33 -7.33 -7.33 -7.33 -7.32 -7.32 -7.32 -7.33 -7.34 -7.33 -7.33 -7.34 -7.34 -7.33 -7.33 -7.31 -7.30 -7.33 -7.33 -7.33 -7.33 -7.34 -7.36 -7.40 -7.44 -7.49 -7.55 -7.57 -7.56 -7.60 -7.63 -7.70 -7.70 -7.68 -7.70 -7.74 -7.75 -7.76 -7.79 -7.79 -7.82 -7.85 -7.86 -7.82 -7.92 -7.98 -8.01 -8.06 -8.08 -8.05 -8.06 -8.08 -8.05 -8.02 -8.04 -8.04 -8.05 -8.07 -8.06 -8.03 -8.05 -8.06 -8.09 -8.12 -8.11 -8.17 -8.22 -8.23 -8.25 -8.28 -8.30 -8.29 -8.38 -8.33 -8.37 -8.41 -8.36 -8.34 -8.32 -8.31 -8.31 -8.35 -8.37 -8.39 -8.40 -8.44 -8.46 -8.50 -8.50 -8.50 -8.52 -8.51 -8.52 -8.51 -8.50 -8.50 -8.48 -8.50 -8.52 -8.55 -8.61 -8.63 -8.65
-4.82 -4.90 -4.90 -4.97 -4.90 -4.99 -5.05 -5.08 -5.12 -5.13 -5.14 -5.16 -5.15 -5.14 -5.16 -5.14 -5.15 -5.14 -5.20 -5.30 -5.38 -5.48 -5.62 -5.53 -5.53 -5.54 -5.60 -5.60 -5.63 -5.68 -5.72 -5.76 -5.79 -5.83 -5.84 -5.83 -5.84 -5.85 -5.85 -5.89 -5.93 -5.98 -5.99 -6.00 -5.99 -6.02 -6.07 -6.10 -6.15 -6.22 -6.26 -6.22 -6.27 -6.28 -6.26 -6.24 -6.27 -6.33 -6.43 -6.39 -6.35 -6.30 -6.31 -6.38 -6.39 -6.41 -6.42 -6.44 -6.48 -6.43 -6.37 -6.28 -6.21 -6.15 -6.11 -6.10 -6.16 -6.22 -6.28 -6.32 -6.40 -6.46 -6.42 -6.40 -6.39 -6.38 -6.42 -6.44 -6.44 -6.43 -6.45 -6.46 -6.52 -6.54 -6.57 -6.57 -6.60 -6.58 -6.52 -6.47 -6.40 -6.40 -6.36 -6.36 -6.31 -6.26 -6.20 -6.14 -6.10 -6.06 -6.02 -5.98 -5.93 -5.88 -5.81 -5.76 -5.79 -5.83 -5.88 -5.92 -5.97 -6.01 -6.04 -6.05 -6.06 -6.07 -6.08 -6.10 -6.12 -6.16 -6.21 -6.26 -6.28 -6.30 -6.30 -6.32 -6.32 -6.34 -6.35 -6.36 -6.35 -6.32 -6.30 -6.29 -6.27 -6.27 -6.28 -6.30 -6.31 -6.32 -6.35 -6.38 -6.42 -6.37 -6.32 -6.32 -6.30 -6.31 -6.32 -6.33 -6.34 -6.36 -6.36 -6.37 -6.36 -6.41 -6.42 -6.44 -6.43 -6.47 -6.46 -6.48 -6.48 -6.43 -6.42 -6.44 -6.44 -6.41 -6.38 -6.38 -6.36 -6.33 -6.30 -6.28 -6.26 -6.22 -6.23 -6.24 -6.28 -6.32 -6.37 -6.46 -6.53 -6.57 -6.61 -6.61 -6.58 -6.55 -6.55 -6.63 -6.66 -6.61 -6.62 -6.59 -6.60 -6.59 -6.63 -6.64 -6.67 -6.69 -6.73 -6.69 -6.72 -6.75 -6.76 -6.82 -6.79 -6.78 -6.77 -6.80 -6.81 -6.82 -6.84 -6.87 -6.91 -6.97 -6.97 -7.03 -7.05 -7.08 -7.12 -7.12 -7.15 -7.17 -7.21 -7.21 -7.25 -7.25 -7.27 -7.29 -7.28 -7.30 -7.33 -7.35 -7.36 -7.38 -7.39 -7.42 -7.44 -7.47 -7.51 -7.50 -7.46 -7.46 -7.48 -7.43 -7.38 -7.37 -7.42 -7.42 -7.46 -7.41 -7.45 -7.46 -7.48 -7.36 -7.37 -7.34 -7.29 -7.26 -7.26 -7.30 -7.30 -7.29 -7.27 -7.27 -7.26 -7.23 -7.25 -7.25 -7.25 -7.24 -7.24 -7.25 -7.27 -7.26 -7.25 -7.26 -7.23 -7.24 -7.24 -7.26 -7.24 -7.26 -7.28 -7.29 -7.28 -7.33 -7.36 -7.39 -7.46 -7.49 -7.55 -7.62 -7.60 -7.59 -7.65 -7.67 -7.72 -7.70 -7.67 -7.74 -7.79 -7.78 -7.82 -7.83 -7.84 -7.87 -7.88 -7.90 -7.90 -7.98 -7.98 -7.98 -8.04 -8.00 -7.99 -7.99 -7.99 -7.94 -7.99 -8.01 -7.98 -8.01 -8.02 -8.06 -8.06 -8.08 -8.08 -8.09 -8.10 -8.17 -8.20 -8.22 -8.24 -8.27 -8.29 -8.32 -8.29 -8.38 -8.35 -8.31 -8.31 -8.28 -8.27 -8.28 -8.31 -8.34 -8.38 -8.42 -8.43 -8.44 -8.47 -8.50 -8.52 -8.51 -8.49 -8.48 -8.53 -8.49 -8.51 -8.48 -8.51 -8.52 -8.55 -8.58 -8.58 -8.64
-4.18 -4.32 -4.36 -4.40 -4.47 -4.54 -4.56 -4.61 -4.65 -4.62 -4.62 -4.61 -4.61 -4.60 -4.61 -4.60 -4.58 -4.55 -4.66 -4.73 -4.80 -4.96 -4.98 -4.93 -4.98 -5.02 -5.02 -5.08 -5.14 -5.14 -5.29 -5.32 -5.32 -5.43 -5.48 -5.45 -5.45 -5.43 -5.47 -5.51 -5.54 -5.59 -5.63 -5.64 -5.66 -5.71 -5.78 -5.81 -5.83 -5.82 -5.86 -5.94 -5.91 -5.88 -5.88 -5.94 -6.03 -6.05 -6.02 -5.98 -6.02 -6.07 -6.11 -6.15 -6.16 -6.20 -6.24 -6.24 -6.21 -6.16 -6.10 -6.10 -6.07 -6.02 -6.01 -5.98 -6.02 -6.09 -6.17 -6.19 -6.20 -6.20 -6.20 -6.23 -6.24 -6.26 -6.22 -6.25 -6.29 -6.32 -6.33 -6.36 -6.39 -6.37 -6.39 -6.39 -6.41 -6.43 -6.39 -6.34 -6.29 -6.28 -6.24 -6.24 -6.22 -6.20 -6.17 -6.15 -6.13 -6.11 -6.04 -5.97 -5.89 -5.81 -5.73 -5.65 -5.64 -5.69 -5.73 -5.77 -5.80 -5.82 -5.85 -5.86 -5.89 -5.92 -5.95 -5.98 -6.01 -6.04 -6.06 -6.08 -6.12 -6.16 -6.18 -6.21 -6.25 -6.28 -6.31 -6.34 -6.32 -6.28 -6.27 -6.25 -6.23 -6.19 -6.19 -6.17 -6.19 -6.21 -6.22 -6.24 -6.29 -6.24 -6.21 -6.23 -6.24 -6.21 -6.21 -6.26 -6.26 -6.25 -6.25 -6.26 -6.27 -6.28 -6.34 -6.36 -6.33 -6.33 -6.37 -6.35 -6.37 -6.37 -6.35 -6.34 -6.36 -6.34 -6.32 -6.32 -6.32 -6.31 -6.23 -6.18 -6.16 -6.13 -6.12 -6.09 -6.14 -6.24 -6.32 -6.36 -6.41 -6.47 -6.55 -6.59 -6.53 -6.54 -6.53 -6.56 -6.56 -6.57 -6.56 -6.52 -6.54 -6.50 -6.51 -6.56 -6.56 -6.59 -6.62 -6.63 -6.64 -6.60 -6.66 -6.70 -6.70 -6.70 -6.68 -6.68 -6.68 -6.74 -6.73 -6.75 -6.79 -6.83 -6.88 -6.92 -6.96 -6.97 -7.00 -7.04 -7.07 -7.08 -7.10 -7.12 -7.15 -7.18 -7.19 -7.21 -7.22 -7.24 -7.23 -7.26 -7.26 -7.28 -7.29 -7.30 -7.30 -7.38 -7.39 -7.38 -7.39 -7.37 -7.35 -7.39 -7.41 -7.38 -7.33 -7.36 -7.37 -7.41 -7.43 -7.33 -7.38 -7.33 -7.28 -7.24 -7.19 -7.19 -7.18 -7.20 -7.21 -7.23 -7.23 -7.21 -7.19 -7.19 -7.17 -7.14 -7.16 -7.15 -7.16 -7.18 -7.18 -7.19 -7.21 -7.18 -7.18 -7.17 -7.17 -7.20 -7.23 -7.21 -7.17 -7.21 -7.25 -7.26 -7.31 -7.42 -7.40 -7.43 -7.53 -7.54 -7.57 -7.60 -7.60 -7.63 -7.70 -7.71 -7.73 -7.69 -7.76 -7.81 -7.81 -7.82 -7.86 -7.87 -7.88 -7.92 -7.89 -7.93 -7.97 -7.99 -7.95 -7.90 -7.96 -7.96 -7.92 -7.92 -7.88 -7.89 -7.95 -7.97 -7.95 -7.97 -7.98 -8.07 -8.10 -8.07 -8.09 -8.10 -8.16 -8.17 -8.21 -8.24 -8.26 -8.28 -8.30 -8.33 -8.30 -8.26 -8.27 -8.24 -8.25 -8.26 -8.29 -8.30 -8.32 -8.37 -8.43 -8.44 -8.45 -8.46 -8.49 -8.50 -8.51 -8.51 -8.48 -8.51 -8.51 -8.48 -8.52 -8.52 -8.54 -8.56 -8.60 -8.63
-3.50 -3.68 -3.87 -3.85 -3.94 -4.03 -4.08 -4.07 -4.08 -4.06 -4.04 -4.03 -3.99 -3.97 -3.96 -3.86 -3.81 -3.87 -3.92 -3.95 -4.16 -4.23 -4.29 -4.42 -4.42 -4.45 -4.51 -4.55 -4.59 -4.67 -4.76 -4.81 -4.88 -4.99 -5.05 -5.05 -5.04 -5.06 -5.09 -5.14 -5.20 -5.25 -5.31 -5.32 -5.35 -5.39 -5.44 -5.49 -5.53 -5.56 -5.60 -5.64 -5.61 -5.61 -5.63 -5.71 -5.72 -5.74 -5.75 -5.75 -5.77 -5.78 -5.84 -5.97 -5.99 -5.97 -5.95 -5.99 -5.96 -5.93 -5.87 -5.81 -5.80 -5.80 -5.86 -5.84 -5.84 -5.88 -5.92 -5.97 -6.01 -6.03 -6.05 -6.07 -6.07 -6.04 -6.09 -6.11 -6.12 -6.13 -6.14 -6.15 -6.14 -6.15 -6.17 -6.18 -6.16 -6.15 -6.14 -6.15 -6.17 -6.14 -6.13 -6.11 -6.11 -6.11 -6.10 -6.08 -6.09 -6.09 -6.01 -5.91 -5.80 -5.70 -5.61 -5.52 -5.49 -5.49 -5.49 -5.49 -5.50 -5.51 -5.53 -5.59 -5.66 -5.71 -5.77 -5.84 -5.88 -5.91 -5.95 -5.98 -6.01 -6.05 -6.05 -6.09 -6.10 -6.14 -6.17 -6.19 -6.21 -6.21 -6.22 -6.20 -6.17 -6.16 -6.14 -6.10 -6.05 -6.02 -6.07 -6.09 -6.12 -6.10 -6.08 -6.05 -6.06 -6.08 -6.10 -6.14 -6.16 -6.16 -6.16 -6.21 -6.19 -6.18 -6.20 -6.22 -6.23 -6.25 -6.29 -6.28 -6.28 -6.27 -6.30 -6.28 -6.27 -6.23 -6.22 -6.23 -6.23 -6.22 -6.19 -6.14 -6.08 -6.07 -6.03 -6.02 -6.07 -6.14 -6.20 -6.25 -6.33 -6.40 -6.44 -6.47 -6.47 -6.47 -6.47 -6.44 -6.44 -6.46 -6.45 -6.48 -6.46 -6.42 -6.46 -6.41 -6.43 -6.51 -6.42 -6.47 -6.54 -6.56 -6.55 -6.51 -6.57 -6.56 -6.59 -6.58 -6.58 -6.58 -6.60 -6.66 -6.65 -6.69 -6.74 -6.79 -6.82 -6.85 -6.88 -6.90 -6.95 -6.99 -7.04 -7.04 -7.04 -7.05 -7.10 -7.12 -7.16 -7.15 -7.16 -7.19 -7.20 -7.19 -7.19 -7.19 -7.21 -7.24 -7.28 -7.30 -7.27 -7.26 -7.25 -7.29 -7.34 -7.35 -7.33 -7.31 -7.32 -7.34 -7.36 -7.39 -7.35 -7.27 -7.21 -7.12 -7.10 -7.10 -7.11 -7.12 -7.11 -7.15 -7.15 -7.17 -7.16 -7.12 -7.10 -7.08 -7.08 -7.05 -7.07 -7.10 -7.14 -7.14 -7.14 -7.14 -7.12 -7.10 -7.14 -7.14 -7.14 -7.20 -7.19 -7.14 -7.16 -7.24 -7.26 -7.30 -7.38 -7.49 -7.43 -7.47 -7.53 -7.57 -7.58 -7.59 -7.61 -7.69 -7.70 -7.72 -7.70 -7.78 -7.81 -7.86 -7.83 -7.85 -7.88 -7.89 -7.92 -7.98 -7.91 -7.90 -7.89 -7.91 -7.91 -7.84 -7.88 -7.90 -7.86 -7.87 -7.84 -7.86 -7.92 -7.91 -7.90 -7.94 -8.02 -8.07 -8.06 -8.09 -8.10 -8.16 -8.16 -8.20 -8.23 -8.25 -8.27 -8.30 -8.27 -8.22 -8.21 -8.21 -8.22 -8.24 -8.25 -8.29 -8.30 -8.33 -8.32 -8.42 -8.48 -8.48 -8.46 -8.46 -8.47 -8.49 -8.51 -8.48 -8.52 -8.54 -8.51 -8.51 -8.54 -8.57 -8.58 -8.60
-2.85 -2.96 -3.04 -3.17 -3.28 -3.47 -3.47 -3.45 -3.47 -3.43 -3.35 -3.36 -3.32 -3.26 -3.21 -3.16 -3.16 -3.26 -3.33 -3.27 -3.37 -3.44 -3.64 -3.81 -3.88 -3.93 -3.98 -4.08 -4.13 -4.21 -4.27 -4.32 -4.39 -4.50 -4.57 -4.59 -4.62 -4.65 -4.70 -4.76 -4.82 -4.90 -4.95 -4.99 -5.03 -5.06 -5.12 -5.16 -5.17 -5.22 -5.26 -5.29 -5.31 -5.31 -5.29 -5.35 -5.41 -5.40 -5.45 -5.45 -5.52 -5.57 -5.61 -5.62 -5.59 -5.59 -5.63 -5.63 -5.61 -5.64 -5.66 -5.63 -5.58 -5.58 -5.63 -5.68 -5.75 -5.83 -5.86 -5.83 -5.80 -5.81 -5.81 -5.85 -6.00 -6.09 -5.95 -5.91 -5.94 -5.97 -6.00 -6.02 -6.04 -6.06 -6.06 -6.05 -6.03 -6.02 -6.02 -6.02 -6.06 -6.09 -6.09 -6.08 -6.05 -6.03 -5.99 -5.97 -5.98 -5.99 -5.90 -5.79 -5.69 -5.60 -5.51 -5.40 -5.33 -5.34 -5.33 -5.33 -5.32 -5.34 -5.38 -5.45 -5.50 -5.55 -5.61 -5.67 -5.71 -5.77 -5.82 -5.86 -5.89 -5.92 -5.94 -5.97 -5.99 -6.03 -6.06 -6.09 -6.11 -6.10 -6.12 -6.11 -6.08 -6.09 -6.02 -5.94 -5.91 -5.89 -5.87 -5.88 -5.86 -5.86 -5.87 -5.85 -5.87 -5.94 -5.98 -5.99 -6.03 -6.02 -6.03 -6.08 -6.08 -6.10 -6.13 -6.15 -6.10 -6.06 -6.13 -6.15 -6.15 -6.19 -6.21 -6.20 -6.18 -6.18 -6.18 -6.18 -6.10 -6.09 -6.08 -6.03 -6.00 -5.97 -5.92 -5.92 -5.99 -6.07 -6.12 -6.17 -6.23 -6.31 -6.33 -6.40 -6.39 -6.39 -6.41 -6.36 -6.38 -6.35 -6.34 -6.34 -6.34 -6.38 -6.34 -6.33 -6.36 -6.30 -6.33 -6.33 -6.28 -6.39 -6.45 -6.46 -6.39 -6.42 -6.47 -6.42 -6.50 -6.47 -6.47 -6.46 -6.53 -6.56 -6.56 -6.64 -6.69 -6.74 -6.77 -6.80 -6.82 -6.82 -6.87 -6.91 -6.93 -6.94 -6.99 -6.99 -7.03 -7.04 -7.08 -7.09 -7.11 -7.14 -7.16 -7.12 -7.11 -7.15 -7.16 -7.19 -7.22 -7.17 -7.16 -7.19 -7.24 -7.28 -7.29 -7.29 -7.28 -7.27 -7.31 -7.27 -7.27 -7.21 -7.13 -7.09 -7.04 -7.01 -7.04 -7.02 -7.03 -7.04 -7.07 -7.08 -7.09 -7.09 -7.06 -7.03 -6.98 -6.96 -7.00 -6.99 -7.03 -7.09 -7.10 -7.08 -7.08 -7.07 -7.05 -7.09 -7.11 -7.09 -7.13 -7.18 -7.17 -7.20 -7.21 -7.26 -7.29 -7.38 -7.45 -7.53 -7.48 -7.53 -7.54 -7.60 -7.62 -7.61 -7.67 -7.73 -7.70 -7.72 -7.71 -7.85 -7.85 -7.86 -7.83 -7.87 -7.89 -7.92 -7.89 -7.95 -7.91 -7.87 -7.85 -7.83 -7.89 -7.78 -7.80 -7.85 -7.85 -7.85 -7.83 -7.83 -7.89 -7.88 -7.92 -7.99 -8.07 -8.09 -8.09 -8.10 -8.16 -8.15 -8.20 -8.22 -8.24 -8.27 -8.23 -8.19 -8.13 -8.18 -8.20 -8.22 -8.23 -8.25 -8.27 -8.31 -8.31 -8.37 -8.35 -8.45 -8.48 -8.48 -8.47 -8.46 -8.47 -8.47 -8.49 -8.52 -8.54 -8.56 -8.53 -8.54 -8.55 -8.61
-2.62 -2.57 -2.57 -2.61 -2.70 -2.73 -2.86 -2.91 -2.89 -2.85 -2.84 -2.81 -2.79 -2.79 -2.81 -2.85 -2.87 -2.90 -2.88 -2.85 -2.92 -3.00 -3.12 -3.25 -3.39 -3.50 -3.55 -3.62 -3.66 -3.76 -3.83 -3.89 -3.95 -4.02 -4.11 -4.20 -4.20 -4.26 -4.30 -4.41 -4.50 -4.55 -4.61 -4.65 -4.69 -4.72 -4.78 -4.83 -4.85 -4.90 -4.95 -4.99 -5.01 -4.99 -5.01 -5.05 -5.10 -5.13 -5.17 -5.20 -5.23 -5.24 -5.26 -5.31 -5.34 -5.33 -5.31 -5.35 -5.35 -5.32 -5.35 -5.42 -5.49 -5.60 -5.67 -5.72 -5.71 -5.70 -5.71 -5.69 -5.69 -5.71 -5.71 -5.73 -5.74 -5.70 -5.73 -5.82 -5.78 -5.77 -5.78 -5.78 -5.76 -5.79 -5.81 -5.83 -5.85 -5.90 -5.90 -5.88 -5.87 -5.87 -5.85 -5.85 -5.85 -5.84 -5.85 -5.84 -5.83 -5.82 -5.75 -5.64 -5.55 -5.45 -5.35 -5.26 -5.21 -5.22 -5.23 -5.24 -5.25 -5.26 -5.28 -5.32 -5.36 -5.39 -5.43 -5.47 -5.53 -5.60 -5.66 -5.72 -5.77 -5.81 -5.85 -5.89 -5.89 -5.92 -5.95 -5.97 -5.97 -6.05 -6.03 -6.03 -6.02 -6.01 -5.88 -5.75 -5.66 -5.65 -5.63 -5.62 -5.70 -5.72 -5.73 -5.72 -5.77 -5.80 -5.84 -5.84 -5.90 -5.93 -5.94 -5.98 -5.98 -6.00 -5.99 -5.99 -6.01 -6.02 -6.03 -6.03 -6.02 -6.04 -6.06 -6.06 -6.10 -6.10 -6.09 -6.10 -6.09 -6.07 -6.04 -6.01 -5.93 -5.89 -5.89 -5.90 -5.93 -5.97 -6.02 -6.08 -6.16 -6.22 -6.27 -6.26 -6.29 -6.29 -6.31 -6.35 -6.32 -6.27 -6.30 -6.28 -6.25 -6.24 -6.21 -6.28 -6.22 -6.22 -6.21 -6.17 -6.20 -6.17 -6.15 -6.27 -6.31 -6.29 -6.28 -6.33 -6.35 -6.29 -6.39 -6.35 -6.34 -6.36 -6.48 -6.49 -6.52 -6.58 -6.67 -6.71 -6.74 -6.75 -6.76 -6.76 -6.78 -6.84 -6.85 -6.86 -6.92 -6.95 -6.96 -6.98 -6.99 -7.02 -7.05 -7.07 -7.08 -7.05 -7.09 -7.10 -7.12 -7.16 -7.17 -7.12 -7.12 -7.18 -7.21 -7.23 -7.23 -7.23 -7.20 -7.19 -7.16 -7.14 -7.08 -7.03 -6.98 -7.00 -6.96 -6.97 -6.95 -6.94 -6.96 -6.97 -7.03 -6.99 -6.98 -6.96 -6.92 -6.93 -6.89 -6.91 -6.93 -6.94 -6.98 -7.06 -7.07 -7.03 -7.01 -6.98 -7.01 -7.09 -7.07 -7.09 -7.19 -7.19 -7.24 -7.23 -7.23 -7.27 -7.35 -7.43 -7.46 -7.51 -7.54 -7.57 -7.56 -7.64 -7.68 -7.68 -7.73 -7.77 -7.71 -7.74 -7.84 -7.84 -7.83 -7.84 -7.83 -7.88 -7.88 -7.88 -7.87 -7.88 -7.90 -7.82 -7.81 -7.76 -7.85 -7.77 -7.83 -7.85 -7.84 -7.83 -7.83 -7.84 -7.92 -7.92 -7.98 -8.05 -8.08 -8.09 -8.10 -8.13 -8.15 -8.19 -8.20 -8.25 -8.21 -8.17 -8.13 -8.16 -8.17 -8.20 -8.22 -8.23 -8.24 -8.26 -8.31 -8.32 -8.35 -8.38 -8.41 -8.44 -8.46 -8.49 -8.48 -8.43 -8.47 -8.50 -8.52 -8.55 -8.57 -8.56 -8.57 -8.56
-2.30 -2.29 -2.24 -2.19 -2.28 -2.34 -2.38 -2.49 -2.56 -2.53 -2.50 -2.47 -2.50 -2.52 -2.56 -2.59 -2.62 -2.62 -2.62 -2.64 -2.65 -2.70 -2.73 -2.88 -3.00 -3.03 -3.06 -3.16 -3.25 -3.36 -3.38 -3.44 -3.48 -3.58 -3.70 -3.80 -3.84 -3.99 -3.99 -4.13 -4.16 -4.21 -4.23 -4.29 -4.33 -4.39 -4.45 -4.49 -4.51 -4.58 -4.60 -4.65 -4.68 -4.70 -4.70 -4.74 -4.80 -4.89 -4.89 -4.92 -4.96 -5.00 -5.03 -5.02 -5.01 -4.99 -5.01 -5.06 -5.16 -5.20 -5.24 -5.30 -5.35 -5.40 -5.44 -5.51 -5.52 -5.51 -5.50 -5.47 -5.45 -5.46 -5.47 -5.50 -5.63 -5.63 -5.59 -5.50 -5.54 -5.53 -5.52 -5.51 -5.51 -5.56 -5.58 -5.68 -5.68 -5.68 -5.65 -5.64 -5.66 -5.69 -5.72 -5.76 -5.73 -5.70 -5.67 -5.63 -5.60 -5.56 -5.48 -5.39 -5.30 -5.22 -5.14 -5.08 -5.03 -5.06 -5.09 -5.11 -5.13 -5.13 -5.15 -5.20 -5.25 -5.30 -5.35 -5.41 -5.44 -5.48 -5.51 -5.56 -5.61 -5.66 -5.70 -5.75 -5.78 -5.83 -5.85 -5.89 -5.87 -5.92 -5.92 -5.92 -5.92 -5.88 -5.83 -5.77 -5.69 -5.44 -5.32 -5.25 -5.28 -5.36 -5.46 -5.60 -5.68 -5.73 -5.76 -5.81 -5.84 -5.85 -5.87 -5.84 -5.87 -5.88 -5.88 -5.89 -5.94 -5.93 -5.91 -5.87 -5.86 -5.91 -5.93 -5.96 -5.96 -5.97 -5.98 -6.00 -5.96 -5.97 -5.94 -5.93 -5.91 -5.88 -5.86 -5.90 -5.87 -5.90 -5.93 -5.99 -6.05 -6.10 -6.14 -6.18 -6.19 -6.18 -6.21 -6.24 -6.22 -6.25 -6.24 -6.21 -6.23 -6.20 -6.16 -6.15 -6.10 -6.15 -6.11 -6.10 -6.06 -6.03 -6.03 -6.01 -6.01 -6.10 -6.22 -6.13 -6.20 -6.23 -6.18 -6.24 -6.24 -6.24 -6.21 -6.29 -6.47 -6.50 -6.53 -6.57 -6.63 -6.70 -6.70 -6.69 -6.67 -6.72 -6.71 -6.74 -6.81 -6.85 -6.88 -6.89 -6.92 -6.93 -6.92 -6.97 -7.00 -7.01 -6.98 -7.01 -7.05 -7.06 -7.10 -7.13 -7.10 -7.09 -7.16 -7.14 -7.18 -7.17 -7.12 -7.09 -7.04 -7.06 -7.02 -7.01 -6.94 -6.92 -6.90 -6.92 -6.88 -6.93 -6.86 -6.87 -6.89 -6.90 -6.90 -6.87 -6.85 -6.85 -6.89 -6.93 -6.85 -6.86 -6.87 -6.90 -6.92 -6.97 -6.99 -6.95 -6.93 -6.93 -7.04 -7.12 -7.11 -7.15 -7.19 -7.23 -7.34 -7.28 -7.32 -7.35 -7.43 -7.48 -7.53 -7.54 -7.58 -7.64 -7.61 -7.69 -7.74 -7.74 -7.77 -7.75 -7.73 -7.76 -7.84 -7.83 -7.80 -7.82 -7.80 -7.82 -7.84 -7.83 -7.83 -7.83 -7.85 -7.79 -7.81 -7.77 -7.83 -7.80 -7.81 -7.84 -7.84 -7.85 -7.88 -7.90 -7.93 -7.98 -8.03 -8.08 -8.08 -8.10 -8.12 -8.15 -8.16 -8.16 -8.18 -8.16 -8.17 -8.16 -8.16 -8.18 -8.20 -8.22 -8.22 -8.24 -8.24 -8.27 -8.34 -8.35 -8.41 -8.39 -8.43 -8.44 -8.45 -8.49 -8.47 -8.48 -8.52 -8.53 -8.56 -8.58 -8.59 -8.59
-2.05 -2.03 -1.98 -1.91 -1.94 -2.01 -2.07 -2.08 -2.12 -2.17 -2.21 -2.22 -2.23 -2.25 -2.30 -2.33 -2.35 -2.38 -2.38 -2.43 -2.46 -2.43 -2.50 -2.54 -2.63 -2.64 -2.67 -2.74 -2.86 -2.94 -3.00 -3.09 -3.13 -3.20 -3.30 -3.42 -3.50 -3.61 -3.65 -3.73 -3.79 -3.90 -3.96 -4.01 -4.06 -4.11 -4.14 -4.20 -4.25 -4.29 -4.32 -4.35 -4.38 -4.41 -4.44 -4.50 -4.54 -4.57 -4.64 -4.68 -4.75 -4.77 -4.75 -4.71 -4.71 -4.72 -4.77 -4.85 -4.90 -4.98 -5.02 -5.07 -5.17 -5.22 -5.28 -5.34 -5.37 -5.37 -5.37 -5.38 -5.38 -5.40 -5.42 -5.45 -5.44 -5.43 -5.44 -5.41 -5.51 -5.50 -5.44 -5.44 -5.51 -5.59 -5.56 -5.51 -5.48 -5.53 -5.67 -5.68 -5.65 -5.63 -5.63 -5.63 -5.59 -5.53 -5.46 -5.41 -5.34 -5.28 -5.22 -5.18 -5.14 -5.09 -5.06 -5.03 -5.00 -5.01 -5.02 -5.03 -5.05 -5.06 -5.07 -5.11 -5.16 -5.21 -5.26 -5.33 -5.33 -5.33 -5.34 -5.37 -5.40 -5.45 -5.52 -5.55 -5.62 -5.66 -5.71 -5.72 -5.75 -5.79 -5.81 -5.82 -5.86 -5.85 -5.78 -5.74 -5.65 -5.59 -5.49 -5.36 -5.29 -5.26 -5.24 -5.15 -5.26 -5.38 -5.52 -5.62 -5.71 -5.77 -5.78 -5.77 -5.76 -5.73 -5.75 -5.78 -5.79 -5.80 -5.78 -5.80 -5.81 -5.80 -5.78 -5.78 -5.82 -5.85 -5.90 -5.89 -5.86 -5.87 -5.85 -5.81 -5.78 -5.75 -5.80 -5.79 -5.79 -5.84 -5.89 -5.91 -5.93 -5.97 -6.01 -6.07 -6.07 -6.06 -6.09 -6.10 -6.14 -6.17 -6.15 -6.16 -6.16 -6.16 -6.15 -6.10 -6.06 -6.04 -6.01 -6.03 -5.99 -5.95 -5.86 -5.86 -5.87 -5.84 -5.88 -5.99 -6.06 -6.05 -6.11 -6.10 -6.08 -6.11 -6.13 -6.18 -6.23 -6.30 -6.45 -6.51 -6.55 -6.56 -6.56 -6.62 -6.69 -6.66 -6.60 -6.65 -6.67 -6.68 -6.71 -6.80 -6.87 -6.88 -6.85 -6.86 -6.91 -6.92 -6.93 -6.93 -6.93 -6.99 -7.02 -7.04 -7.08 -7.08 -7.04 -7.11 -7.09 -7.09 -7.05 -7.00 -6.94 -6.94 -6.92 -6.94 -6.91 -6.87 -6.83 -6.81 -6.83 -6.83 -6.81 -6.87 -6.78 -6.77 -6.82 -6.83 -6.78 -6.77 -6.82 -6.87 -6.94 -6.94 -6.81 -6.83 -6.83 -6.85 -6.85 -6.88 -6.90 -6.93 -6.96 -7.03 -7.12 -7.14 -7.16 -7.19 -7.22 -7.34 -7.38 -7.37 -7.42 -7.45 -7.51 -7.54 -7.56 -7.61 -7.66 -7.71 -7.67 -7.73 -7.78 -7.77 -7.72 -7.72 -7.73 -7.82 -7.84 -7.79 -7.78 -7.80 -7.77 -7.78 -7.80 -7.79 -7.80 -7.79 -7.84 -7.80 -7.80 -7.79 -7.81 -7.83 -7.81 -7.87 -7.87 -7.89 -7.93 -7.96 -7.99 -8.03 -8.08 -8.08 -8.10 -8.10 -8.10 -8.10 -8.11 -8.12 -8.15 -8.17 -8.17 -8.18 -8.19 -8.20 -8.23 -8.24 -8.22 -8.25 -8.27 -8.33 -8.38 -8.39 -8.44 -8.43 -8.47 -8.48 -8.48 -8.50 -8.49 -8.51 -8.56 -8.57 -8.58 -8.58
-1.84 -1.80 -1.75 -1.74 -1.73 -1.77 -1.80 -1.77 -1.86 -1.94 -1.96 -1.98 -1.96 -2.00 -2.04 -2.10 -2.08 -2.21 -2.18 -2.24 -2.26 -2.19 -2.30 -2.25 -2.26 -2.33 -2.39 -2.46 -2.54 -2.59 -2.65 -2.71 -2.78 -2.83 -2.96 -3.08 -3.17 -3.23 -3.31 -3.37 -3.46 -3.58 -3.67 -3.74 -3.80 -3.79 -3.81 -3.92 -3.96 -3.97 -4.00 -4.06 -4.09 -4.15 -4.19 -4.23 -4.30 -4.36 -4.44 -4.50 -4.47 -4.47 -4.48 -4.45 -4.45 -4.47 -4.51 -4.58 -4.66 -4.73 -4.76 -4.80 -4.85 -4.93 -5.02 -5.11 -5.17 -5.21 -5.25 -5.29 -5.32 -5.36 -5.34 -5.30 -5.32 -5.35 -5.37 -5.34 -5.32 -5.37 -5.40 -5.38 -5.35 -5.35 -5.36 -5.38 -5.38 -5.38 -5.40 -5.41 -5.42 -5.44 -5.44 -5.46 -5.42 -5.36 -5.30 -5.22 -5.15 -5.07 -5.03 -5.02 -5.01 -5.00 -4.99 -4.98 -4.98 -4.98 -4.99 -4.99 -5.00 -5.01 -5.02 -5.05 -5.10 -5.14 -5.19 -5.23 -5.22 -5.21 -5.21 -5.22 -5.23 -5.27 -5.34 -5.38 -5.46 -5.52 -5.56 -5.59 -5.61 -5.61 -5.64 -5.67 -5.68 -5.71 -5.71 -5.68 -5.68 -5.65 -5.57 -5.47 -5.37 -5.28 -5.22 -5.22 -5.32 -5.38 -5.42 -5.43 -5.52 -5.65 -5.63 -5.63 -5.60 -5.58 -5.59 -5.59 -5.60 -5.61 -5.61 -5.65 -5.64 -5.68 -5.68 -5.71 -5.72 -5.69 -5.73 -5.75 -5.76 -5.75 -5.76 -5.73 -5.73 -5.71 -5.69 -5.68 -5.72 -5.70 -5.75 -5.74 -5.80 -5.82 -5.89 -5.92 -5.93 -5.96 -5.99 -6.00 -6.07 -6.06 -6.09 -6.10 -6.07 -6.07 -6.06 -6.05 -5.99 -5.97 -5.93 -5.93 -5.90 -5.85 -5.80 -5.71 -5.62 -5.70 -5.71 -5.71 -5.86 -5.97 -5.95 -5.98 -5.99 -5.97 -6.02 -6.08 -6.14 -6.21 -6.28 -6.31 -6.42 -6.49 -6.43 -6.40 -6.39 -6.49 -6.61 -6.66 -6.62 -6.60 -6.65 -6.63 -6.66 -6.68 -6.76 -6.81 -6.77 -6.82 -6.89 -6.85 -6.89 -6.91 -6.92 -6.97 -6.99 -7.03 -7.06 -7.00 -7.00 -7.01 -6.96 -6.92 -6.93 -6.83 -6.79 -6.83 -6.80 -6.83 -6.80 -6.75 -6.72 -6.71 -6.74 -6.76 -6.74 -6.76 -6.68 -6.68 -6.72 -6.81 -6.84 -6.81 -6.80 -6.86 -6.92 -6.87 -6.80 -6.80 -6.79 -6.78 -6.80 -6.87 -6.96 -7.01 -7.06 -7.12 -7.20 -7.16 -7.20 -7.24 -7.27 -7.42 -7.40 -7.46 -7.51 -7.52 -7.56 -7.60 -7.61 -7.61 -7.74 -7.77 -7.73 -7.75 -7.73 -7.72 -7.69 -7.76 -7.78 -7.81 -7.77 -7.73 -7.74 -7.78 -7.73 -7.76 -7.76 -7.75 -7.78 -7.80 -7.82 -7.81 -7.79 -7.81 -7.81 -7.84 -7.85 -7.88 -7.91 -7.94 -7.97 -7.99 -8.04 -8.07 -8.07 -8.06 -8.06 -8.06 -8.06 -8.09 -8.10 -8.12 -8.15 -8.18 -8.18 -8.19 -8.22 -8.22 -8.26 -8.26 -8.26 -8.27 -8.30 -8.37 -8.41 -8.45 -8.44 -8.47 -8.49 -8.49 -8.50 -8.49 -8.52 -8.55 -8.60 -8.58
