ncols	372
nrows	32
xllcorner	296675
yllcorner	131295
cellsize	5.00
NODATA_value	-9999.00
-0.73 -0.64 -0.54 -0.42 -0.32 -0.21 -0.10 0.03 0.14 0.28 0.46 0.56 0.66 0.79 0.88 0.95 1.03 1.13 1.26 1.45 1.51 1.47 1.48 1.47 1.41 1.40 1.37 1.33 1.35 1.27 1.25 1.25 1.18 1.18 1.19 1.13 1.00 0.91 0.82 0.66 0.54 0.35 0.11 0.15 0.30 0.24 0.08 0.17 0.28 0.31 0.32 0.31 0.37 0.43 0.47 0.43 0.40 0.41 0.38 0.34 0.32 0.34 0.35 0.42 0.42 0.44 0.44 0.46 0.46 0.38 0.33 0.36 0.33 0.39 0.35 0.32 0.28 0.24 0.21 0.17 0.18 0.16 0.16 0.20 0.18 0.19 0.14 0.11 0.17 0.22 0.24 0.24 0.29 0.26 0.25 0.27 0.29 0.27 0.23 0.15 0.10 0.05 0.00 -0.06 -0.07 -0.09 -0.05 -0.20 -0.18 -0.17 -0.17 -0.14 -0.14 -0.15 -0.17 -0.06 0.01 0.00 0.12 0.19 0.19 0.30 0.30 0.38 0.41 0.48 0.54 0.57 0.60 0.62 0.59 0.61 0.66 0.69 0.71 0.81 0.79 0.83 0.84 0.78 0.85 0.92 0.95 1.04 1.08 1.13 1.18 1.20 1.22 1.24 1.24 1.22 1.21 1.15 1.14 1.15 1.17 1.10 1.31 1.38 1.52 1.99 2.40 2.65 2.87 3.06 3.27 3.64 3.75 3.76 3.78 3.51 3.48 3.43 3.20 3.03 3.11 3.14 3.18 2.81 2.40 2.63 2.88 2.87 3.00 2.70 2.61 2.57 2.51 2.60 3.20 2.97 3.12 3.17 3.15 3.30 3.13 3.34 3.37 3.08 3.42 3.23 2.87 2.80 2.56 2.39 2.30 2.12 2.03 1.95 1.96 1.96 1.91 1.86 1.90 1.93 2.02 2.24 2.11 2.36 2.32 2.76 2.79 3.01 3.35 3.54 3.74 3.90 3.73 3.59 3.68 3.51 3.48 3.53 3.40 3.36 3.36 3.32 -9999.00 -9999.00 -9999.00 -9999.00 -9999.00 -9999.00 -9999.00 -9999.00 -9999.00 -9999.00 -9999.00 -9999.00 -9999.00 -9999.00 -9999.00 -9999.00 3.23 2.85 2.33 1.65 1.29 1.17 1.08 0.95 0.82 0.65 0.45 0.30 0.23 0.13 0.01 -0.07 -0.18 -0.29 -0.37 -0.45 -0.50 -0.58 -0.66 -0.72 -0.69 -0.81 -0.89 -0.97 -1.04 -1.11 -1.15 -1.19 -1.23 -1.26 -1.30 -1.34 -1.36 -1.37 -1.39 -1.42 -1.46 -1.51 -1.59 -1.65 -1.67 -1.66 -1.68 -1.71 -1.74 -1.75 -1.80 -1.85 -1.89 -1.95 -1.98 -2.02 -2.05 -2.10 -2.16 -2.22 -2.29 -2.35 -2.42 -2.48 -2.55 -2.61 -2.68 -2.76 -2.85 -2.96 -3.08 -3.14 -3.23 -3.30 -3.42 -3.43 -3.51 -3.52 -3.59 -3.63 -3.67 -3.74 -3.82 -3.88 -3.96 -4.02 -4.11 -4.19 -4.26 -4.38 -4.48 -4.60 -4.70 -4.77 -4.87 -4.97 -5.02 -5.10 -5.17 -5.27 -5.32 -5.36 -5.44 -5.45 -5.46 -5.50 -5.55 -5.63 -5.69 -5.72 -5.75 -5.77 -5.82 -5.86 -5.89 -5.97 -6.03 -6.06
-0.66 -0.57 -0.49 -0.34 -0.23 -0.12 -0.02 0.12 0.26 0.41 0.52 0.65 0.76 0.88 0.97 1.05 1.12 1.19 1.33 1.48 1.53 1.51 1.49 1.45 1.40 1.34 1.37 1.33 1.28 1.23 1.28 1.23 1.21 1.16 1.15 0.98 0.85 0.73 0.63 0.53 0.48 0.38 0.16 0.24 0.25 0.22 0.16 0.25 0.29 0.41 0.30 0.33 0.39 0.45 0.46 0.44 0.41 0.40 0.39 0.37 0.35 0.36 0.38 0.42 0.44 0.44 0.44 0.45 0.46 0.40 0.34 0.38 0.36 0.35 0.38 0.34 0.30 0.26 0.20 0.17 0.18 0.18 0.16 0.22 0.19 0.19 0.19 0.23 0.31 0.34 0.35 0.36 0.37 0.35 0.34 0.36 0.32 0.28 0.25 0.14 0.09 0.04 -0.01 -0.04 -0.08 -0.09 -0.15 -0.05 -0.07 -0.08 -0.06 -0.06 0.01 -0.03 -0.06 0.09 0.13 0.18 0.24 0.27 0.35 0.47 0.40 0.48 0.52 0.59 0.67 0.72 0.78 0.73 0.76 0.78 0.81 0.82 0.82 0.87 0.91 0.96 1.01 1.01 1.06 1.11 1.16 1.19 1.23 1.25 1.30 1.30 1.29 1.31 1.30 1.26 1.27 1.20 1.26 1.38 1.47 1.62 1.97 2.29 2.58 2.80 2.97 3.22 3.51 3.84 3.76 3.64 3.63 3.45 3.17 3.11 3.04 2.97 2.90 2.80 2.79 2.90 2.73 2.48 2.24 2.39 2.42 2.49 2.62 2.55 2.42 2.33 2.25 2.18 2.33 2.41 2.39 2.55 3.24 3.19 3.11 3.18 2.96 2.79 2.93 3.35 3.44 3.30 3.33 3.21 3.06 3.03 2.72 2.71 2.65 2.64 2.62 2.60 2.60 2.84 3.05 3.04 2.90 3.24 3.49 3.70 3.67 3.64 3.67 3.66 3.54 3.42 3.52 3.38 3.32 3.29 3.15 3.21 3.06 -9999.00 -9999.00 -9999.00 -9999.00 -9999.00 -9999.00 -9999.00 -9999.00 -9999.00 -9999.00 -9999.00 -9999.00 -9999.00 -9999.00 -9999.00 -9999.00 -9999.00 -9999.00 -9999.00 -9999.00 3.39 2.95 2.37 1.82 1.41 1.23 1.08 0.97 0.74 0.55 0.43 0.34 0.24 0.14 0.00 -0.05 -0.16 -0.28 -0.34 -0.43 -0.49 -0.56 -0.65 -0.69 -0.73 -0.77 -0.83 -0.92 -0.99 -1.05 -1.09 -1.13 -1.16 -1.20 -1.24 -1.29 -1.32 -1.33 -1.37 -1.41 -1.45 -1.50 -1.56 -1.62 -1.64 -1.63 -1.67 -1.67 -1.70 -1.75 -1.79 -1.84 -1.89 -1.92 -1.97 -2.01 -2.05 -2.11 -2.17 -2.24 -2.30 -2.37 -2.43 -2.49 -2.56 -2.62 -2.69 -2.76 -2.86 -2.95 -3.06 -3.15 -3.24 -3.31 -3.34 -3.42 -3.44 -3.52 -3.54 -3.60 -3.65 -3.71 -3.78 -3.86 -3.94 -4.00 -4.06 -4.18 -4.32 -4.42 -4.52 -4.63 -4.73 -4.81 -4.87 -4.94 -5.00 -5.07 -5.15 -5.25 -5.33 -5.34 -5.39 -5.40 -5.45 -5.50 -5.53 -5.58 -5.65 -5.72 -5.74 -5.77 -5.81 -5.87 -5.88 -5.89 -6.00
-0.57 -0.50 -0.39 -0.26 -0.14 -0.04 0.09 0.25 0.38 0.52 0.65 0.78 0.87 1.02 1.08 1.14 1.22 1.30 1.39 1.51 1.55 1.51 1.49 1.42 1.39 1.36 1.27 1.29 1.29 1.26 1.27 1.24 1.18 1.07 0.94 0.85 0.75 0.59 0.43 0.48 0.43 0.47 0.26 0.30 0.26 0.20 0.23 0.33 0.43 0.48 0.36 0.41 0.47 0.43 0.44 0.44 0.42 0.41 0.39 0.40 0.39 0.38 0.43 0.40 0.42 0.40 0.38 0.38 0.37 0.36 0.33 0.34 0.36 0.40 0.39 0.36 0.32 0.27 0.25 0.18 0.22 0.26 0.21 0.15 0.15 0.30 0.26 0.36 0.40 0.41 0.43 0.44 0.44 0.41 0.36 0.30 0.26 0.25 0.24 0.14 0.08 0.03 0.00 -0.02 -0.05 -0.03 -0.03 -0.05 -0.06 -0.05 0.01 0.04 0.06 0.14 0.16 0.22 0.24 0.32 0.41 0.46 0.51 0.56 0.65 0.63 0.67 0.75 0.82 0.84 0.91 0.96 0.91 0.86 0.93 0.91 0.95 1.00 1.06 1.11 1.17 1.18 1.21 1.24 1.27 1.27 1.28 1.30 1.30 1.22 1.29 1.33 1.38 1.47 1.64 1.72 1.94 2.02 2.32 2.72 2.83 3.47 3.47 3.83 4.16 3.93 3.75 3.46 3.00 2.80 2.81 2.82 2.83 2.84 -9999.00 -9999.00 -9999.00 2.35 2.39 2.61 2.30 2.26 2.22 2.10 2.18 2.02 2.01 2.02 2.22 2.06 1.99 1.84 1.86 1.93 1.92 2.23 2.69 3.13 3.08 3.15 2.87 2.77 2.62 2.85 2.93 2.80 2.81 3.06 3.14 3.42 3.40 3.43 3.46 3.35 3.56 3.71 3.60 3.65 3.68 3.67 3.62 3.60 3.65 3.55 3.39 3.39 3.38 3.31 3.27 3.22 3.20 3.15 3.08 3.01 2.93 -9999.00 -9999.00 -9999.00 -9999.00 -9999.00 -9999.00 -9999.00 -9999.00 -9999.00 -9999.00 -9999.00 -9999.00 -9999.00 -9999.00 -9999.00 -9999.00 -9999.00 -9999.00 -9999.00 -9999.00 -9999.00 -9999.00 -9999.00 3.58 2.78 2.41 2.03 1.57 1.25 1.01 0.86 0.71 0.56 0.46 0.36 0.25 0.15 0.02 -0.05 -0.12 -0.23 -0.28 -0.39 -0.46 -0.51 -0.56 -0.66 -0.71 -0.73 -0.78 -0.85 -0.92 -0.98 -1.04 -1.05 -1.12 -1.16 -1.20 -1.24 -1.29 -1.32 -1.35 -1.38 -1.44 -1.47 -1.53 -1.59 -1.61 -1.61 -1.62 -1.66 -1.72 -1.75 -1.80 -1.84 -1.89 -1.92 -1.97 -2.00 -2.05 -2.12 -2.18 -2.25 -2.31 -2.38 -2.44 -2.51 -2.57 -2.64 -2.70 -2.77 -2.85 -2.94 -3.05 -3.16 -3.20 -3.25 -3.30 -3.35 -3.39 -3.45 -3.52 -3.55 -3.62 -3.69 -3.77 -3.84 -3.91 -3.98 -4.10 -4.18 -4.31 -4.45 -4.54 -4.66 -4.75 -4.83 -4.87 -4.92 -4.98 -5.04 -5.15 -5.20 -5.29 -5.31 -5.34 -5.41 -5.43 -5.46 -5.54 -5.56 -5.61 -5.68 -5.76 -5.80 -5.81 -5.86 -5.89 -5.93
-0.43 -0.40 -0.29 -0.16 -0.05 0.07 0.21 0.38 0.49 0.59 0.76 0.89 1.01 1.15 1.21 1.26 1.32 1.39 1.48 1.53 1.55 1.56 1.49 1.42 1.36 1.32 1.33 1.30 1.27 1.29 1.29 1.23 1.09 0.93 0.79 0.60 0.57 0.48 0.40 0.46 0.48 0.49 0.38 0.36 0.36 0.17 0.31 0.42 0.48 0.42 0.43 0.45 0.43 0.47 0.44 0.44 0.42 0.42 0.41 0.42 0.43 0.41 0.41 0.40 0.39 0.37 0.36 0.39 0.36 0.30 0.29 0.31 0.37 0.41 0.38 0.38 0.35 0.33 0.30 0.24 0.30 0.33 0.31 0.34 0.34 0.34 0.35 0.45 0.48 0.44 0.48 0.49 0.45 0.40 0.37 0.31 0.25 0.21 0.20 0.13 0.07 0.03 0.04 -0.00 0.00 0.02 0.02 -0.01 -0.02 0.01 0.05 0.10 0.18 0.25 0.30 0.37 0.45 0.53 0.51 0.53 0.60 0.67 0.77 0.73 0.83 0.94 0.92 0.94 0.96 0.96 1.01 1.04 1.06 1.08 1.10 1.18 1.10 1.15 1.15 1.22 1.25 1.27 1.32 1.29 1.30 1.34 1.34 1.51 1.84 1.95 2.13 2.31 2.42 2.56 2.76 3.14 3.29 3.60 4.22 4.04 3.83 3.77 3.70 3.64 3.48 3.31 3.14 -9999.00 -9999.00 -9999.00 -9999.00 -9999.00 -9999.00 -9999.00 -9999.00 -9999.00 1.96 1.98 1.98 1.97 1.93 1.92 1.95 1.92 1.78 1.81 1.83 1.84 1.83 1.84 1.85 1.88 1.87 2.05 2.35 2.64 2.99 3.12 2.95 2.78 2.59 2.51 2.56 2.57 2.69 2.90 2.88 3.01 2.95 3.08 3.12 3.13 3.31 3.37 3.34 3.38 3.39 3.27 3.14 3.30 3.45 3.28 -9999.00 -9999.00 -9999.00 -9999.00 -9999.00 -9999.00 -9999.00 -9999.00 -9999.00 -9999.00 -9999.00 -9999.00 -9999.00 -9999.00 -9999.00 -9999.00 -9999.00 -9999.00 -9999.00 -9999.00 -9999.00 -9999.00 -9999.00 -9999.00 -9999.00 -9999.00 -9999.00 -9999.00 -9999.00 -9999.00 -9999.00 -9999.00 -9999.00 -9999.00 -9999.00 3.71 2.99 2.63 2.16 1.63 1.24 1.04 0.95 0.78 0.60 0.42 0.34 0.26 0.12 0.03 -0.06 -0.15 -0.19 -0.24 -0.35 -0.42 -0.46 -0.51 -0.63 -0.67 -0.71 -0.75 -0.79 -0.84 -0.92 -0.96 -1.03 -1.06 -1.13 -1.17 -1.21 -1.25 -1.32 -1.33 -1.37 -1.42 -1.46 -1.51 -1.56 -1.58 -1.59 -1.64 -1.67 -1.71 -1.77 -1.81 -1.84 -1.89 -1.93 -1.96 -2.00 -2.07 -2.13 -2.20 -2.26 -2.33 -2.39 -2.44 -2.49 -2.55 -2.61 -2.69 -2.78 -2.86 -2.96 -3.01 -3.09 -3.14 -3.21 -3.24 -3.28 -3.34 -3.38 -3.44 -3.53 -3.57 -3.64 -3.76 -3.82 -3.89 -3.99 -4.08 -4.19 -4.28 -4.43 -4.57 -4.68 -4.73 -4.80 -4.87 -4.92 -4.97 -5.02 -5.10 -5.17 -5.24 -5.28 -5.30 -5.37 -5.40 -5.44 -5.50 -5.55 -5.62 -5.68 -5.74 -5.82 -5.82 -5.84 -5.90
-0.37 -0.30 -0.19 -0.07 0.05 0.14 0.32 0.45 0.60 0.70 0.86 1.01 1.15 1.29 1.34 1.39 1.45 1.51 1.53 1.51 1.47 1.48 1.48 1.41 1.36 1.33 1.36 1.33 1.32 1.33 1.25 1.10 0.97 0.80 0.63 0.58 0.43 0.46 0.51 0.40 0.51 0.51 0.43 0.29 0.31 0.25 0.37 0.48 0.51 0.49 0.53 0.49 0.47 0.46 0.48 0.43 0.41 0.42 0.43 0.45 0.47 0.41 0.39 0.35 0.38 0.40 0.43 0.38 0.33 0.26 0.34 0.40 0.37 0.41 0.38 0.36 0.37 0.39 0.42 0.35 0.34 0.39 0.39 0.39 0.42 0.41 0.42 0.51 0.47 0.47 0.49 0.45 0.42 0.38 0.35 0.30 0.26 0.22 0.18 0.13 0.07 0.06 0.07 0.09 0.10 0.11 0.10 0.10 0.10 0.11 0.20 0.26 0.31 0.31 0.43 0.50 0.55 0.59 0.61 0.68 0.68 0.67 0.75 0.77 0.81 0.85 0.94 0.96 0.99 1.03 1.09 1.08 1.11 1.17 1.23 1.26 1.11 1.15 1.24 1.25 1.30 1.30 1.45 1.60 1.82 2.06 2.33 2.35 2.63 2.74 2.91 3.12 3.29 3.61 3.98 4.15 3.97 3.83 3.67 3.62 3.56 3.69 -9999.00 -9999.00 -9999.00 -9999.00 -9999.00 -9999.00 -9999.00 -9999.00 -9999.00 -9999.00 -9999.00 -9999.00 -9999.00 -9999.00 -9999.00 1.83 1.86 1.86 1.86 1.86 1.86 1.86 1.78 1.81 1.81 1.80 1.80 1.82 1.84 1.86 1.87 2.06 2.36 2.66 2.96 3.12 2.94 2.75 2.56 2.37 2.35 2.48 2.61 2.74 2.58 2.55 2.60 2.77 2.73 2.88 3.08 3.10 3.13 3.07 2.97 2.91 -9999.00 -9999.00 -9999.00 -9999.00 -9999.00 -9999.00 -9999.00 -9999.00 -9999.00 -9999.00 -9999.00 -9999.00 -9999.00 -9999.00 -9999.00 -9999.00 -9999.00 -9999.00 -9999.00 -9999.00 -9999.00 -9999.00 -9999.00 -9999.00 -9999.00 -9999.00 -9999.00 -9999.00 -9999.00 -9999.00 -9999.00 -9999.00 -9999.00 -9999.00 -9999.00 -9999.00 -9999.00 -9999.00 -9999.00 -9999.00 3.82 3.32 2.77 2.29 1.61 1.25 1.14 1.01 0.77 0.59 0.47 0.32 0.25 0.15 0.04 -0.07 -0.15 -0.22 -0.23 -0.33 -0.38 -0.42 -0.46 -0.56 -0.67 -0.69 -0.70 -0.76 -0.78 -0.85 -0.91 -0.98 -1.04 -1.09 -1.14 -1.18 -1.26 -1.29 -1.32 -1.35 -1.42 -1.45 -1.51 -1.51 -1.57 -1.60 -1.63 -1.68 -1.72 -1.77 -1.80 -1.84 -1.89 -1.92 -1.95 -2.01 -2.08 -2.13 -2.19 -2.26 -2.32 -2.38 -2.44 -2.50 -2.57 -2.63 -2.69 -2.77 -2.86 -2.93 -2.98 -3.00 -3.06 -3.14 -3.18 -3.24 -3.27 -3.34 -3.40 -3.47 -3.51 -3.59 -3.68 -3.81 -3.88 -3.95 -4.06 -4.17 -4.29 -4.41 -4.50 -4.60 -4.68 -4.75 -4.86 -4.89 -4.94 -5.01 -5.06 -5.15 -5.19 -5.24 -5.27 -5.32 -5.37 -5.42 -5.50 -5.54 -5.65 -5.68 -5.72 -5.79 -5.84 -5.84
-0.31 -0.20 -0.12 0.02 0.15 0.27 0.46 0.59 0.76 0.86 0.97 1.11 1.26 1.40 1.47 1.47 1.52 1.57 1.52 1.49 1.47 1.40 1.39 1.38 1.36 1.35 1.36 1.32 1.36 1.22 1.08 0.95 0.80 0.66 0.52 0.34 0.52 0.47 0.53 0.50 0.45 0.47 0.45 0.28 0.34 0.33 0.40 0.47 0.51 0.53 0.54 0.49 0.46 0.47 0.48 0.47 0.45 0.47 0.47 0.49 0.51 0.38 0.33 0.42 0.44 0.47 0.49 0.33 0.25 0.42 0.46 0.52 0.47 0.50 0.46 0.48 0.46 0.43 0.48 0.44 0.45 0.46 0.51 0.48 0.54 0.52 0.49 0.49 0.45 0.47 0.46 0.42 0.39 0.35 0.37 0.36 0.29 0.24 0.20 0.14 0.12 0.13 0.13 0.11 0.13 0.19 0.24 0.22 0.25 0.27 0.35 0.42 0.45 0.52 0.61 0.67 0.70 0.73 0.76 0.76 0.72 0.74 0.77 0.80 0.85 0.89 0.95 1.00 1.02 1.03 1.05 1.16 1.23 1.29 1.35 1.31 1.25 1.30 1.41 1.59 1.84 2.00 2.28 2.51 2.67 2.87 3.08 3.26 3.48 3.60 3.75 3.67 3.61 3.89 3.96 3.79 3.60 -9999.00 -9999.00 -9999.00 -9999.00 -9999.00 -9999.00 -9999.00 -9999.00 -9999.00 -9999.00 -9999.00 -9999.00 -9999.00 -9999.00 -9999.00 -9999.00 -9999.00 -9999.00 -9999.00 -9999.00 -9999.00 1.80 1.80 1.80 1.79 1.79 1.79 1.80 1.76 1.76 1.78 1.76 1.81 1.86 1.86 1.87 2.13 2.40 2.69 2.98 3.12 2.98 2.76 2.55 2.35 2.30 2.32 2.45 2.58 2.48 2.18 2.39 2.42 2.51 2.55 2.80 2.82 2.91 2.83 -9999.00 -9999.00 -9999.00 -9999.00 -9999.00 -9999.00 -9999.00 -9999.00 -9999.00 -9999.00 -9999.00 -9999.00 -9999.00 -9999.00 -9999.00 -9999.00 -9999.00 -9999.00 -9999.00 -9999.00 -9999.00 -9999.00 -9999.00 -9999.00 -9999.00 -9999.00 -9999.00 -9999.00 -9999.00 -9999.00 -9999.00 -9999.00 -9999.00 -9999.00 -9999.00 -9999.00 -9999.00 -9999.00 -9999.00 -9999.00 -9999.00 -9999.00 -9999.00 3.80 2.99 2.76 2.33 1.75 1.41 1.11 0.97 0.80 0.56 0.50 0.38 0.28 0.18 0.10 -0.10 -0.12 -0.10 -0.24 -0.29 -0.33 -0.38 -0.41 -0.43 -0.59 -0.57 -0.61 -0.67 -0.76 -0.81 -0.85 -0.93 -0.98 -1.05 -1.12 -1.19 -1.22 -1.27 -1.31 -1.34 -1.41 -1.46 -1.47 -1.51 -1.55 -1.61 -1.63 -1.67 -1.73 -1.77 -1.81 -1.84 -1.88 -1.93 -1.95 -2.03 -2.08 -2.13 -2.19 -2.24 -2.31 -2.36 -2.43 -2.51 -2.58 -2.67 -2.73 -2.76 -2.80 -2.86 -2.92 -2.98 -2.99 -3.05 -3.11 -3.17 -3.23 -3.25 -3.33 -3.40 -3.50 -3.56 -3.68 -3.75 -3.86 -3.94 -4.05 -4.15 -4.25 -4.34 -4.45 -4.53 -4.63 -4.69 -4.79 -4.87 -4.93 -4.98 -5.05 -5.13 -5.18 -5.21 -5.24 -5.30 -5.37 -5.44 -5.50 -5.59 -5.64 -5.70 -5.72 -5.75 -5.82
-0.23 -0.14 -0.05 0.08 0.20 0.39 0.56 0.72 0.86 0.95 1.07 1.22 1.37 1.44 1.55 1.56 1.57 1.52 1.52 1.44 1.44 1.43 1.37 1.36 1.38 1.39 1.37 1.31 1.19 1.06 0.90 0.83 0.66 0.50 0.50 0.36 0.40 0.49 0.52 0.53 0.48 0.48 0.43 0.31 0.35 0.40 0.44 0.48 0.52 0.52 0.52 0.48 0.45 0.45 0.51 0.53 0.51 0.53 0.50 0.54 0.55 0.43 0.21 0.44 0.48 0.53 0.53 0.26 0.55 0.57 0.64 0.66 0.67 0.61 0.60 0.62 0.60 0.55 0.59 0.59 0.60 0.59 0.64 0.60 0.56 0.55 0.50 0.49 0.45 0.47 0.43 0.40 0.42 0.44 0.39 0.41 0.35 0.28 0.23 0.19 0.19 0.20 0.23 0.21 0.21 0.23 0.25 0.29 0.36 0.45 0.49 0.54 0.59 0.64 0.68 0.74 0.78 0.80 0.76 0.77 0.77 0.76 0.80 0.84 0.94 1.00 1.06 1.01 1.02 1.06 1.07 1.27 1.34 1.41 1.46 1.52 1.73 1.94 2.26 2.40 2.63 2.85 3.00 3.36 3.75 3.77 3.89 4.11 4.09 4.07 3.97 3.73 3.70 -9999.00 -9999.00 -9999.00 -9999.00 -9999.00 -9999.00 -9999.00 -9999.00 -9999.00 -9999.00 -9999.00 -9999.00 -9999.00 -9999.00 -9999.00 -9999.00 -9999.00 -9999.00 -9999.00 -9999.00 -9999.00 -9999.00 -9999.00 -9999.00 -9999.00 -9999.00 -9999.00 1.76 1.74 1.73 1.73 1.70 1.72 1.77 1.76 1.80 1.79 1.77 1.81 1.91 2.20 2.45 2.76 3.03 3.11 3.01 2.84 2.62 2.45 2.50 2.42 2.40 2.42 2.37 2.25 2.28 2.19 2.34 2.50 2.64 2.80 -9999.00 -9999.00 -9999.00 -9999.00 -9999.00 -9999.00 -9999.00 -9999.00 -9999.00 -9999.00 -9999.00 -9999.00 -9999.00 -9999.00 -9999.00 -9999.00 -9999.00 -9999.00 -9999.00 -9999.00 -9999.00 -9999.00 -9999.00 -9999.00 -9999.00 -9999.00 -9999.00 -9999.00 -9999.00 -9999.00 -9999.00 -9999.00 -9999.00 -9999.00 -9999.00 -9999.00 -9999.00 -9999.00 -9999.00 -9999.00 -9999.00 -9999.00 -9999.00 -9999.00 -9999.00 -9999.00 3.72 3.12 2.79 2.39 1.86 1.44 1.13 1.03 0.86 0.72 0.58 0.53 0.38 0.22 0.07 0.02 0.03 -0.17 -0.20 -0.24 -0.24 -0.29 -0.35 -0.39 -0.46 -0.51 -0.51 -0.59 -0.68 -0.77 -0.83 -0.91 -0.94 -1.01 -1.07 -1.15 -1.21 -1.26 -1.28 -1.34 -1.39 -1.46 -1.47 -1.51 -1.54 -1.60 -1.64 -1.68 -1.72 -1.77 -1.81 -1.85 -1.87 -1.94 -1.98 -2.03 -2.09 -2.17 -2.22 -2.27 -2.33 -2.38 -2.45 -2.54 -2.60 -2.68 -2.72 -2.74 -2.76 -2.81 -2.86 -2.94 -2.93 -2.99 -3.06 -3.09 -3.16 -3.20 -3.25 -3.35 -3.45 -3.53 -3.64 -3.74 -3.84 -3.92 -4.03 -4.11 -4.21 -4.29 -4.39 -4.48 -4.55 -4.66 -4.75 -4.86 -4.89 -4.95 -5.04 -5.12 -5.17 -5.19 -5.24 -5.29 -5.37 -5.44 -5.49 -5.60 -5.61 -5.66 -5.71 -5.75
-0.19 -0.07 0.06 0.18 0.33 0.49 0.59 0.79 0.93 1.10 1.19 1.31 1.42 1.47 1.55 1.59 1.60 1.52 1.47 1.46 1.37 1.42 1.41 1.38 1.42 1.39 1.28 1.19 1.05 0.87 0.75 0.62 0.54 0.48 0.52 0.47 0.41 0.46 0.49 0.48 0.46 0.45 0.47 0.43 0.34 0.46 0.47 0.45 0.50 0.51 0.50 0.48 0.41 0.48 0.53 0.55 0.55 0.56 0.56 0.59 0.59 0.48 0.29 0.45 0.57 0.59 0.51 0.56 0.67 0.69 0.75 0.76 0.77 0.73 0.73 0.76 0.73 0.74 0.73 0.69 0.71 0.73 0.68 0.63 0.58 0.58 0.53 0.49 0.48 0.44 0.46 0.46 0.45 0.47 0.44 0.42 0.38 0.32 0.27 0.21 0.23 0.22 0.25 0.28 0.31 0.34 0.40 0.43 0.49 0.55 0.63 0.64 0.66 0.72 0.75 0.74 0.79 0.79 0.78 0.79 0.80 0.80 0.92 0.98 1.05 1.12 1.12 1.07 1.23 1.27 1.30 1.45 1.63 1.82 1.98 2.34 2.55 2.73 3.22 3.46 3.57 3.64 3.74 3.93 4.18 4.10 4.27 4.16 4.14 -9999.00 -9999.00 -9999.00 -9999.00 -9999.00 -9999.00 -9999.00 -9999.00 -9999.00 -9999.00 -9999.00 -9999.00 -9999.00 -9999.00 -9999.00 -9999.00 -9999.00 -9999.00 -9999.00 -9999.00 -9999.00 -9999.00 -9999.00 -9999.00 -9999.00 -9999.00 -9999.00 -9999.00 -9999.00 -9999.00 -9999.00 -9999.00 -9999.00 -9999.00 1.72 1.72 1.73 1.74 1.73 1.75 1.76 1.79 1.80 1.95 2.25 2.55 2.80 2.94 3.08 3.01 2.94 2.69 2.67 2.56 2.52 2.49 2.45 2.43 2.40 2.44 2.53 2.48 2.63 2.70 -9999.00 -9999.00 -9999.00 -9999.00 -9999.00 -9999.00 -9999.00 -9999.00 -9999.00 -9999.00 -9999.00 -9999.00 -9999.00 -9999.00 -9999.00 -9999.00 -9999.00 -9999.00 -9999.00 -9999.00 -9999.00 -9999.00 -9999.00 -9999.00 -9999.00 -9999.00 -9999.00 -9999.00 -9999.00 -9999.00 -9999.00 -9999.00 -9999.00 -9999.00 -9999.00 -9999.00 -9999.00 -9999.00 -9999.00 -9999.00 -9999.00 -9999.00 -9999.00 -9999.00 -9999.00 -9999.00 -9999.00 -9999.00 3.54 3.47 2.84 2.54 2.02 1.48 1.24 1.13 0.95 0.85 0.65 0.58 0.49 0.26 0.26 0.17 -0.02 -0.09 -0.09 -0.14 -0.20 -0.27 -0.30 -0.33 -0.37 -0.41 -0.48 -0.56 -0.62 -0.69 -0.77 -0.85 -0.92 -0.99 -1.04 -1.11 -1.19 -1.24 -1.29 -1.31 -1.36 -1.42 -1.47 -1.51 -1.54 -1.60 -1.65 -1.69 -1.74 -1.78 -1.82 -1.86 -1.91 -1.96 -1.99 -2.04 -2.10 -2.18 -2.23 -2.31 -2.36 -2.43 -2.47 -2.55 -2.61 -2.63 -2.68 -2.71 -2.73 -2.75 -2.80 -2.86 -2.93 -2.92 -3.01 -3.09 -3.11 -3.15 -3.22 -3.31 -3.40 -3.51 -3.61 -3.71 -3.79 -3.88 -3.95 -4.05 -4.15 -4.24 -4.32 -4.44 -4.53 -4.61 -4.72 -4.80 -4.88 -4.92 -4.99 -5.08 -5.14 -5.17 -5.23 -5.29 -5.37 -5.44 -5.51 -5.54 -5.59 -5.64 -5.68
-0.12 0.02 0.15 0.30 0.46 0.54 0.69 0.86 1.03 1.16 1.31 1.40 1.45 1.50 1.53 1.61 1.63 1.54 1.46 1.43 1.42 1.40 1.41 1.42 1.40 1.30 1.18 1.05 1.00 0.78 0.54 0.43 0.43 0.45 0.50 0.52 0.42 0.40 0.39 0.41 0.42 0.44 0.46 0.42 0.39 0.43 0.49 0.52 0.49 0.48 0.48 0.49 0.47 0.53 0.56 0.62 0.59 0.63 0.63 0.63 0.63 0.63 0.54 0.67 0.69 0.61 0.71 0.73 0.78 0.80 0.85 0.86 0.86 0.86 0.83 0.86 0.87 0.83 0.83 0.82 0.79 0.78 0.73 0.69 0.64 0.60 0.57 0.54 0.54 0.51 0.51 0.51 0.51 0.49 0.47 0.45 0.43 0.36 0.30 0.28 0.38 0.31 0.33 0.35 0.37 0.40 0.44 0.54 0.59 0.62 0.68 0.75 0.74 0.74 0.76 0.78 0.79 0.78 0.80 0.85 0.84 0.92 1.01 1.10 1.16 1.23 1.28 1.22 1.42 1.63 1.87 1.99 2.27 2.66 3.21 3.97 3.77 3.91 4.15 4.09 4.00 4.10 4.21 4.31 4.42 4.42 -9999.00 -9999.00 -9999.00 -9999.00 -9999.00 -9999.00 -9999.00 -9999.00 -9999.00 -9999.00 -9999.00 -9999.00 -9999.00 -9999.00 -9999.00 -9999.00 -9999.00 -9999.00 -9999.00 -9999.00 -9999.00 -9999.00 -9999.00 -9999.00 -9999.00 -9999.00 -9999.00 -9999.00 -9999.00 -9999.00 -9999.00 -9999.00 -9999.00 -9999.00 -9999.00 -9999.00 -9999.00 -9999.00 -9999.00 -9999.00 -9999.00 -9999.00 -9999.00 1.81 1.81 1.84 2.06 2.32 2.46 2.60 2.75 2.89 3.03 3.05 2.91 2.76 2.71 2.68 2.64 2.62 2.65 2.59 2.59 2.64 2.69 2.71 2.84 -9999.00 -9999.00 -9999.00 -9999.00 -9999.00 -9999.00 -9999.00 -9999.00 -9999.00 -9999.00 -9999.00 -9999.00 -9999.00 -9999.00 -9999.00 -9999.00 -9999.00 -9999.00 -9999.00 -9999.00 -9999.00 -9999.00 -9999.00 -9999.00 -9999.00 -9999.00 -9999.00 -9999.00 -9999.00 -9999.00 -9999.00 -9999.00 -9999.00 -9999.00 -9999.00 -9999.00 -9999.00 -9999.00 -9999.00 -9999.00 -9999.00 -9999.00 -9999.00 -9999.00 -9999.00 -9999.00 -9999.00 -9999.00 -9999.00 -9999.00 3.62 3.09 2.53 2.05 1.52 1.15 1.09 0.89 0.77 0.75 0.59 0.46 0.42 0.36 0.21 0.04 0.08 -0.07 -0.12 -0.20 -0.22 -0.25 -0.27 -0.32 -0.37 -0.43 -0.49 -0.56 -0.64 -0.72 -0.80 -0.87 -0.96 -1.01 -1.08 -1.14 -1.22 -1.24 -1.27 -1.34 -1.39 -1.45 -1.50 -1.56 -1.62 -1.66 -1.70 -1.74 -1.77 -1.81 -1.86 -1.93 -1.95 -2.02 -2.05 -2.11 -2.17 -2.24 -2.33 -2.39 -2.46 -2.52 -2.51 -2.56 -2.59 -2.63 -2.68 -2.71 -2.71 -2.75 -2.80 -2.85 -2.88 -2.94 -3.03 -3.11 -3.11 -3.18 -3.26 -3.36 -3.46 -3.58 -3.66 -3.76 -3.83 -3.90 -3.98 -4.09 -4.21 -4.30 -4.41 -4.51 -4.57 -4.68 -4.76 -4.84 -4.89 -4.96 -5.05 -5.11 -5.16 -5.20 -5.30 -5.34 -5.41 -5.48 -5.50 -5.56 -5.59
-0.04 0.08 0.20 0.38 0.52 0.66 0.81 0.95 1.10 1.26 1.41 1.48 1.51 1.54 1.56 1.60 1.64 1.56 1.46 1.42 1.44 1.43 1.39 1.38 1.33 1.20 1.06 0.97 0.85 0.76 0.52 0.48 0.47 0.43 0.48 0.50 0.47 0.39 0.40 0.40 0.32 0.41 0.46 0.46 0.45 0.44 0.48 0.50 0.54 0.49 0.55 0.57 0.57 0.57 0.60 0.64 0.63 0.67 0.72 0.70 0.73 0.68 0.70 0.70 0.72 0.74 0.86 0.89 0.90 0.96 0.98 0.97 0.96 0.96 0.95 0.96 0.88 0.88 0.91 0.89 0.88 0.83 0.78 0.74 0.70 0.64 0.62 0.61 0.60 0.55 0.58 0.56 0.55 0.53 0.51 0.46 0.43 0.35 0.31 0.27 0.37 0.36 0.38 0.43 0.48 0.57 0.65 0.62 0.70 0.73 0.79 0.79 0.77 0.78 0.80 0.81 0.87 0.93 0.95 0.89 0.87 0.91 0.96 1.06 1.21 1.34 1.57 1.76 2.02 2.37 2.71 3.12 3.80 4.04 3.93 3.93 4.08 4.23 4.11 3.95 3.94 4.00 4.14 -9999.00 -9999.00 -9999.00 -9999.00 -9999.00 -9999.00 -9999.00 -9999.00 -9999.00 -9999.00 -9999.00 -9999.00 -9999.00 -9999.00 -9999.00 -9999.00 -9999.00 -9999.00 -9999.00 -9999.00 -9999.00 -9999.00 -9999.00 -9999.00 -9999.00 -9999.00 -9999.00 -9999.00 -9999.00 -9999.00 -9999.00 -9999.00 -9999.00 -9999.00 -9999.00 -9999.00 -9999.00 -9999.00 -9999.00 -9999.00 -9999.00 -9999.00 -9999.00 -9999.00 -9999.00 -9999.00 -9999.00 -9999.00 -9999.00 -9999.00 -9999.00 -9999.00 -9999.00 2.57 2.75 2.89 2.99 2.98 2.74 2.73 2.85 2.80 2.69 2.65 2.62 2.70 2.69 2.73 2.85 -9999.00 -9999.00 -9999.00 -9999.00 -9999.00 -9999.00 -9999.00 -9999.00 -9999.00 -9999.00 -9999.00 -9999.00 -9999.00 -9999.00 -9999.00 -9999.00 -9999.00 -9999.00 -9999.00 -9999.00 -9999.00 -9999.00 -9999.00 -9999.00 -9999.00 -9999.00 -9999.00 -9999.00 -9999.00 -9999.00 -9999.00 -9999.00 -9999.00 -9999.00 -9999.00 -9999.00 -9999.00 -9999.00 -9999.00 -9999.00 -9999.00 -9999.00 -9999.00 -9999.00 -9999.00 -9999.00 -9999.00 -9999.00 -9999.00 -9999.00 -9999.00 -9999.00 3.50 2.84 2.54 2.07 1.42 1.22 1.03 0.93 0.86 0.70 0.67 0.61 0.43 0.42 0.28 0.21 0.10 -0.04 -0.15 -0.16 -0.19 -0.19 -0.23 -0.28 -0.33 -0.39 -0.45 -0.51 -0.57 -0.68 -0.75 -0.84 -0.92 -1.00 -1.05 -1.11 -1.16 -1.21 -1.25 -1.32 -1.37 -1.43 -1.51 -1.58 -1.62 -1.68 -1.69 -1.74 -1.76 -1.77 -1.86 -1.91 -1.99 -2.02 -2.05 -2.11 -2.16 -2.25 -2.31 -2.42 -2.46 -2.48 -2.49 -2.49 -2.53 -2.58 -2.64 -2.67 -2.69 -2.70 -2.73 -2.77 -2.82 -2.90 -2.98 -3.03 -3.11 -3.13 -3.22 -3.33 -3.42 -3.51 -3.62 -3.69 -3.77 -3.85 -3.90 -4.05 -4.17 -4.27 -4.37 -4.47 -4.56 -4.63 -4.71 -4.81 -4.89 -4.96 -5.02 -5.11 -5.14 -5.16 -5.24 -5.30 -5.38 -5.43 -5.49 -5.54
0.06 0.18 0.32 0.45 0.59 0.73 0.89 1.01 1.13 1.29 1.44 1.60 1.57 1.53 1.52 1.54 1.58 1.55 1.43 1.43 1.41 1.40 1.37 1.32 1.19 1.08 0.96 0.81 0.73 0.66 0.65 0.56 0.60 0.57 0.55 0.53 0.46 0.35 0.44 0.49 0.49 0.42 0.49 0.50 0.50 0.50 0.52 0.54 0.58 0.61 0.63 0.68 0.68 0.63 0.71 0.72 0.77 0.79 0.79 0.80 0.80 0.82 0.80 0.84 0.88 0.89 0.92 1.01 1.03 1.08 1.09 1.08 1.08 1.05 1.06 1.03 0.98 1.02 0.99 0.96 0.93 0.89 0.84 0.78 0.75 0.73 0.68 0.66 0.66 0.64 0.59 0.61 0.57 0.55 0.51 0.51 0.46 0.35 0.36 0.38 0.41 0.45 0.50 0.56 0.65 0.73 0.81 0.89 0.76 0.82 0.78 0.74 0.80 0.81 0.86 0.92 0.96 1.00 0.89 0.96 1.03 1.14 1.22 1.28 1.50 1.92 2.23 2.52 2.79 3.55 3.86 3.57 3.88 3.93 3.82 3.78 4.01 4.39 4.17 3.81 3.82 3.95 -9999.00 -9999.00 -9999.00 -9999.00 -9999.00 -9999.00 -9999.00 -9999.00 -9999.00 -9999.00 -9999.00 -9999.00 -9999.00 -9999.00 -9999.00 -9999.00 -9999.00 -9999.00 -9999.00 -9999.00 -9999.00 -9999.00 -9999.00 -9999.00 -9999.00 -9999.00 -9999.00 -9999.00 -9999.00 -9999.00 -9999.00 -9999.00 -9999.00 -9999.00 -9999.00 -9999.00 -9999.00 -9999.00 -9999.00 -9999.00 -9999.00 -9999.00 -9999.00 -9999.00 -9999.00 -9999.00 -9999.00 -9999.00 -9999.00 -9999.00 -9999.00 -9999.00 -9999.00 -9999.00 -9999.00 -9999.00 -9999.00 -9999.00 -9999.00 -9999.00 2.58 2.58 2.52 2.49 2.46 2.54 2.68 2.77 2.83 -9999.00 -9999.00 -9999.00 -9999.00 -9999.00 -9999.00 -9999.00 -9999.00 -9999.00 -9999.00 -9999.00 -9999.00 -9999.00 -9999.00 -9999.00 -9999.00 -9999.00 -9999.00 -9999.00 -9999.00 -9999.00 -9999.00 -9999.00 -9999.00 -9999.00 -9999.00 -9999.00 -9999.00 -9999.00 -9999.00 -9999.00 -9999.00 -9999.00 -9999.00 -9999.00 -9999.00 -9999.00 -9999.00 -9999.00 -9999.00 -9999.00 -9999.00 -9999.00 -9999.00 -9999.00 -9999.00 -9999.00 -9999.00 -9999.00 -9999.00 -9999.00 -9999.00 -9999.00 -9999.00 3.64 2.85 2.58 2.13 1.46 1.22 1.06 0.92 0.89 0.80 0.69 0.57 0.52 0.52 0.57 0.44 0.21 0.05 -0.06 -0.10 -0.17 -0.15 -0.21 -0.26 -0.31 -0.36 -0.42 -0.46 -0.55 -0.63 -0.72 -0.79 -0.87 -0.93 -1.00 -1.06 -1.12 -1.17 -1.21 -1.28 -1.36 -1.44 -1.51 -1.59 -1.63 -1.64 -1.65 -1.69 -1.75 -1.74 -1.80 -1.93 -1.95 -1.99 -2.05 -2.09 -2.15 -2.25 -2.33 -2.38 -2.42 -2.41 -2.42 -2.46 -2.45 -2.51 -2.55 -2.61 -2.63 -2.66 -2.67 -2.74 -2.75 -2.83 -2.90 -2.98 -3.04 -3.11 -3.18 -3.24 -3.36 -3.45 -3.57 -3.61 -3.71 -3.80 -3.89 -3.99 -4.13 -4.23 -4.34 -4.45 -4.54 -4.60 -4.68 -4.79 -4.85 -4.93 -5.01 -5.02 -5.13 -5.16 -5.20 -5.26 -5.34 -5.39 -5.45
0.13 0.26 0.42 0.57 0.69 0.81 0.93 1.05 1.18 1.30 1.44 1.56 1.58 1.54 1.50 1.49 1.52 1.42 1.39 1.43 1.44 1.39 1.29 1.18 1.11 0.98 0.83 0.75 0.67 0.65 0.61 0.66 0.69 0.55 0.57 0.55 0.54 0.42 0.48 0.52 0.55 0.54 0.51 0.52 0.51 0.53 0.58 0.58 0.65 0.69 0.71 0.76 0.78 0.79 0.83 0.87 0.90 0.92 0.91 0.96 0.91 0.93 0.95 1.01 1.07 1.06 1.09 1.12 1.21 1.21 1.20 1.18 1.20 1.19 1.14 1.15 1.10 1.09 1.06 1.03 0.99 0.96 0.92 0.88 0.85 0.80 0.75 0.71 0.72 0.70 0.68 0.65 0.61 0.61 0.60 0.52 0.47 0.39 0.43 0.48 0.51 0.56 0.64 0.72 0.76 0.81 0.84 0.81 0.81 0.78 0.76 0.80 0.83 0.88 0.92 0.96 1.00 1.03 1.09 1.10 1.22 1.26 1.46 1.84 2.18 2.55 3.51 3.89 3.82 3.79 3.93 3.75 3.77 3.72 3.69 3.63 3.93 3.91 3.64 3.49 3.66 3.79 -9999.00 -9999.00 -9999.00 -9999.00 -9999.00 -9999.00 -9999.00 -9999.00 -9999.00 -9999.00 -9999.00 -9999.00 -9999.00 -9999.00 -9999.00 -9999.00 -9999.00 -9999.00 -9999.00 -9999.00 -9999.00 -9999.00 -9999.00 -9999.00 -9999.00 -9999.00 -9999.00 -9999.00 -9999.00 -9999.00 -9999.00 -9999.00 -9999.00 -9999.00 -9999.00 -9999.00 -9999.00 -9999.00 -9999.00 -9999.00 -9999.00 -9999.00 -9999.00 -9999.00 -9999.00 -9999.00 -9999.00 -9999.00 -9999.00 -9999.00 -9999.00 -9999.00 -9999.00 -9999.00 -9999.00 -9999.00 -9999.00 -9999.00 -9999.00 -9999.00 -9999.00 -9999.00 -9999.00 -9999.00 -9999.00 2.41 2.55 2.63 -9999.00 -9999.00 -9999.00 -9999.00 -9999.00 -9999.00 -9999.00 -9999.00 -9999.00 -9999.00 -9999.00 -9999.00 -9999.00 -9999.00 -9999.00 -9999.00 -9999.00 -9999.00 -9999.00 -9999.00 -9999.00 -9999.00 -9999.00 -9999.00 -9999.00 -9999.00 -9999.00 -9999.00 -9999.00 -9999.00 -9999.00 -9999.00 -9999.00 -9999.00 -9999.00 -9999.00 -9999.00 -9999.00 -9999.00 -9999.00 -9999.00 -9999.00 -9999.00 -9999.00 -9999.00 -9999.00 -9999.00 -9999.00 -9999.00 -9999.00 -9999.00 -9999.00 -9999.00 -9999.00 -9999.00 -9999.00 3.61 2.88 2.63 2.12 1.52 1.24 1.10 1.01 0.91 0.76 0.75 0.59 0.45 0.43 0.42 0.54 0.47 0.23 0.15 -0.11 -0.09 -0.15 -0.20 -0.25 -0.31 -0.32 -0.37 -0.45 -0.54 -0.60 -0.66 -0.72 -0.81 -0.89 -0.95 -1.01 -1.08 -1.12 -1.17 -1.25 -1.32 -1.40 -1.48 -1.55 -1.59 -1.59 -1.60 -1.62 -1.69 -1.75 -1.74 -1.82 -1.94 -1.98 -2.02 -2.10 -2.14 -2.19 -2.25 -2.27 -2.35 -2.38 -2.35 -2.37 -2.42 -2.44 -2.47 -2.53 -2.57 -2.60 -2.65 -2.68 -2.75 -2.79 -2.86 -2.91 -2.99 -3.05 -3.12 -3.21 -3.29 -3.39 -3.48 -3.59 -3.65 -3.76 -3.86 -3.96 -4.08 -4.20 -4.30 -4.44 -4.49 -4.57 -4.64 -4.76 -4.86 -4.90 -4.99 -5.04 -5.05 -5.14 -5.16 -5.23 -5.28 -5.36
0.17 0.36 0.47 0.66 0.79 0.90 1.01 1.14 1.24 1.37 1.48 1.55 1.59 1.56 1.51 1.47 1.49 1.43 1.45 1.44 1.39 1.31 1.10 0.91 0.94 0.89 0.78 0.64 0.64 0.65 0.61 0.64 0.69 0.68 0.60 0.61 0.63 0.62 0.56 0.56 0.57 0.60 0.61 0.60 0.55 0.57 0.63 0.68 0.72 0.75 0.82 0.89 0.90 0.93 0.98 1.00 1.05 1.06 1.04 1.05 1.09 1.12 1.11 1.17 1.21 1.22 1.25 1.30 1.31 1.32 1.33 1.32 1.30 1.25 1.22 1.21 1.18 1.19 1.20 1.14 1.10 1.05 1.02 0.98 0.92 0.85 0.82 0.79 0.74 0.77 0.75 0.74 0.73 0.69 0.66 0.56 0.47 0.39 0.44 0.46 0.55 0.65 0.68 0.72 0.79 0.76 0.76 0.74 0.76 0.78 0.83 0.84 0.93 0.91 0.97 1.01 1.06 1.13 1.25 1.36 1.61 1.91 2.10 2.54 3.79 4.04 3.79 3.85 3.79 3.81 3.80 3.79 3.62 3.57 3.53 3.49 3.67 3.47 3.32 3.29 3.50 -9999.00 -9999.00 -9999.00 -9999.00 -9999.00 -9999.00 -9999.00 -9999.00 -9999.00 -9999.00 -9999.00 -9999.00 -9999.00 -9999.00 -9999.00 -9999.00 -9999.00 -9999.00 -9999.00 -9999.00 -9999.00 -9999.00 -9999.00 -9999.00 -9999.00 -9999.00 -9999.00 -9999.00 -9999.00 -9999.00 -9999.00 -9999.00 -9999.00 -9999.00 -9999.00 -9999.00 -9999.00 -9999.00 -9999.00 -9999.00 -9999.00 -9999.00 -9999.00 -9999.00 -9999.00 -9999.00 -9999.00 -9999.00 -9999.00 -9999.00 -9999.00 -9999.00 -9999.00 -9999.00 -9999.00 -9999.00 -9999.00 -9999.00 -9999.00 -9999.00 -9999.00 -9999.00 -9999.00 -9999.00 -9999.00 -9999.00 -9999.00 -9999.00 -9999.00 -9999.00 -9999.00 -9999.00 -9999.00 -9999.00 -9999.00 -9999.00 -9999.00 -9999.00 -9999.00 -9999.00 -9999.00 -9999.00 -9999.00 -9999.00 -9999.00 -9999.00 -9999.00 -9999.00 -9999.00 -9999.00 -9999.00 -9999.00 -9999.00 -9999.00 -9999.00 -9999.00 -9999.00 -9999.00 -9999.00 -9999.00 -9999.00 -9999.00 -9999.00 -9999.00 -9999.00 -9999.00 -9999.00 -9999.00 -9999.00 -9999.00 -9999.00 -9999.00 -9999.00 -9999.00 -9999.00 -9999.00 -9999.00 -9999.00 -9999.00 -9999.00 -9999.00 -9999.00 -9999.00 -9999.00 -9999.00 -9999.00 -9999.00 3.17 2.69 2.23 1.57 1.30 1.14 1.07 0.86 0.76 0.70 0.67 0.56 0.43 0.37 0.46 0.41 0.58 0.15 -0.03 -0.07 -0.15 -0.18 -0.23 -0.22 -0.29 -0.35 -0.43 -0.49 -0.54 -0.58 -0.65 -0.76 -0.79 -0.87 -0.95 -1.03 -1.06 -1.12 -1.20 -1.27 -1.35 -1.42 -1.49 -1.52 -1.54 -1.54 -1.55 -1.63 -1.73 -1.70 -1.77 -1.85 -1.93 -1.97 -2.04 -2.09 -2.12 -2.19 -2.21 -2.25 -2.32 -2.34 -2.30 -2.33 -2.40 -2.42 -2.44 -2.52 -2.57 -2.64 -2.70 -2.72 -2.75 -2.82 -2.86 -2.94 -3.03 -3.08 -3.14 -3.20 -3.31 -3.42 -3.53 -3.61 -3.70 -3.82 -3.92 -4.05 -4.16 -4.25 -4.36 -4.44 -4.52 -4.62 -4.71 -4.83 -4.89 -4.94 -4.99 -4.99 -5.09 -5.14 -5.19 -5.23
0.26 0.41 0.52 0.66 0.85 0.97 1.12 1.22 1.33 1.43 1.53 1.55 1.58 1.61 1.54 1.50 1.46 1.42 1.43 1.40 1.42 1.11 0.87 0.71 0.71 0.70 0.69 0.67 0.55 0.61 0.64 0.62 0.69 0.71 0.62 0.64 0.66 0.67 0.63 0.64 0.64 0.64 0.66 0.65 0.66 0.63 0.69 0.73 0.79 0.86 0.94 1.03 1.06 1.08 1.12 1.16 1.20 1.19 1.19 1.20 1.24 1.29 1.33 1.37 1.35 1.40 1.42 1.41 1.40 1.45 1.46 1.41 1.36 1.31 1.31 1.32 1.31 1.29 1.28 1.27 1.22 1.17 1.12 1.05 1.02 0.96 0.92 0.89 0.88 0.86 0.87 0.84 0.85 0.77 0.67 0.57 0.48 0.46 0.48 0.55 0.60 0.61 0.70 0.71 0.71 0.75 0.80 0.84 0.86 0.87 0.95 0.99 1.02 1.03 1.09 1.13 1.29 1.52 1.76 1.92 2.23 2.63 3.22 3.84 3.88 4.04 3.89 3.81 3.74 3.71 3.73 3.64 3.49 3.47 3.43 3.36 3.34 3.37 3.24 3.21 3.40 -9999.00 -9999.00 -9999.00 -9999.00 -9999.00 -9999.00 -9999.00 -9999.00 -9999.00 -9999.00 -9999.00 -9999.00 -9999.00 -9999.00 -9999.00 -9999.00 -9999.00 -9999.00 -9999.00 -9999.00 -9999.00 -9999.00 -9999.00 -9999.00 -9999.00 -9999.00 -9999.00 -9999.00 -9999.00 -9999.00 -9999.00 -9999.00 -9999.00 -9999.00 -9999.00 -9999.00 -9999.00 -9999.00 -9999.00 -9999.00 -9999.00 -9999.00 -9999.00 -9999.00 -9999.00 -9999.00 -9999.00 -9999.00 -9999.00 -9999.00 -9999.00 -9999.00 -9999.00 -9999.00 -9999.00 -9999.00 -9999.00 -9999.00 -9999.00 -9999.00 -9999.00 -9999.00 -9999.00 -9999.00 -9999.00 -9999.00 -9999.00 -9999.00 -9999.00 -9999.00 -9999.00 -9999.00 -9999.00 -9999.00 -9999.00 -9999.00 -9999.00 -9999.00 -9999.00 -9999.00 -9999.00 -9999.00 -9999.00 -9999.00 -9999.00 -9999.00 -9999.00 -9999.00 -9999.00 -9999.00 -9999.00 -9999.00 -9999.00 -9999.00 -9999.00 -9999.00 -9999.00 -9999.00 -9999.00 -9999.00 -9999.00 -9999.00 -9999.00 -9999.00 -9999.00 -9999.00 -9999.00 -9999.00 -9999.00 -9999.00 -9999.00 -9999.00 -9999.00 -9999.00 -9999.00 -9999.00 -9999.00 -9999.00 -9999.00 -9999.00 -9999.00 -9999.00 -9999.00 -9999.00 -9999.00 -9999.00 -9999.00 -9999.00 3.75 2.88 2.28 1.75 1.32 1.25 1.05 0.87 0.81 0.74 0.67 0.61 0.52 0.53 0.38 0.48 0.51 0.55 0.30 0.12 -0.14 -0.24 -0.22 -0.19 -0.27 -0.32 -0.38 -0.39 -0.49 -0.55 -0.57 -0.63 -0.84 -0.82 -0.87 -0.95 -0.99 -1.07 -1.15 -1.22 -1.29 -1.36 -1.41 -1.44 -1.48 -1.50 -1.51 -1.52 -1.61 -1.69 -1.72 -1.81 -1.85 -1.94 -1.99 -2.03 -2.03 -2.09 -2.14 -2.18 -2.24 -2.27 -2.26 -2.25 -2.30 -2.38 -2.41 -2.46 -2.52 -2.58 -2.68 -2.75 -2.76 -2.80 -2.84 -2.90 -2.98 -3.06 -3.11 -3.19 -3.25 -3.37 -3.47 -3.56 -3.64 -3.76 -3.87 -3.99 -4.11 -4.21 -4.30 -4.41 -4.47 -4.56 -4.64 -4.77 -4.83 -4.89 -4.95 -4.98 -5.01 -5.10 -5.16
0.28 0.45 0.62 0.79 0.90 1.02 1.17 1.32 1.45 1.51 1.56 1.51 1.53 1.55 1.47 1.45 1.50 1.45 1.41 1.44 1.11 0.80 0.63 0.64 0.66 0.78 0.62 0.70 0.63 0.59 0.66 0.66 0.71 0.71 0.65 0.67 0.69 0.69 0.70 0.70 0.71 0.65 0.68 0.71 0.72 0.73 0.79 0.83 0.90 1.00 1.05 1.14 1.24 1.23 1.26 1.30 1.35 1.29 1.31 1.35 1.40 1.46 1.46 1.48 1.52 1.53 1.51 1.50 1.52 1.55 1.51 1.47 1.41 1.39 1.35 1.36 1.38 1.36 1.33 1.32 1.30 1.26 1.18 1.14 1.05 1.02 1.01 0.97 0.97 0.97 0.93 0.94 0.87 0.78 0.68 0.59 0.54 0.53 0.54 0.56 0.63 0.75 0.72 0.76 0.84 0.88 0.93 0.97 0.98 0.92 1.00 1.11 1.11 1.27 1.47 1.79 1.99 2.31 2.69 2.75 3.43 3.97 3.85 3.75 3.69 3.60 3.63 3.58 3.53 3.49 3.43 3.05 2.79 3.30 3.20 3.17 3.18 3.18 3.18 3.13 -9999.00 -9999.00 -9999.00 -9999.00 -9999.00 -9999.00 -9999.00 -9999.00 -9999.00 -9999.00 -9999.00 -9999.00 -9999.00 -9999.00 -9999.00 -9999.00 -9999.00 -9999.00 -9999.00 -9999.00 -9999.00 -9999.00 -9999.00 -9999.00 -9999.00 -9999.00 -9999.00 -9999.00 -9999.00 -9999.00 -9999.00 -9999.00 -9999.00 -9999.00 -9999.00 -9999.00 -9999.00 -9999.00 -9999.00 -9999.00 -9999.00 -9999.00 -9999.00 -9999.00 -9999.00 -9999.00 -9999.00 -9999.00 -9999.00 -9999.00 -9999.00 -9999.00 -9999.00 -9999.00 -9999.00 -9999.00 -9999.00 -9999.00 -9999.00 -9999.00 -9999.00 -9999.00 -9999.00 -9999.00 -9999.00 -9999.00 -9999.00 -9999.00 -9999.00 -9999.00 -9999.00 -9999.00 -9999.00 -9999.00 -9999.00 -9999.00 -9999.00 -9999.00 -9999.00 -9999.00 -9999.00 -9999.00 -9999.00 -9999.00 -9999.00 -9999.00 -9999.00 -9999.00 -9999.00 -9999.00 -9999.00 -9999.00 -9999.00 -9999.00 -9999.00 -9999.00 -9999.00 -9999.00 -9999.00 -9999.00 -9999.00 -9999.00 -9999.00 -9999.00 -9999.00 -9999.00 -9999.00 -9999.00 -9999.00 -9999.00 -9999.00 -9999.00 -9999.00 -9999.00 -9999.00 -9999.00 -9999.00 -9999.00 -9999.00 -9999.00 -9999.00 -9999.00 -9999.00 -9999.00 -9999.00 -9999.00 -9999.00 -9999.00 -9999.00 -9999.00 3.37 2.78 2.42 1.87 1.43 1.23 1.00 0.97 0.92 0.82 0.71 0.65 0.62 0.58 0.43 0.40 0.34 0.47 0.57 0.19 0.16 0.06 -0.06 -0.18 -0.23 -0.27 -0.29 -0.37 -0.43 -0.52 -0.62 -0.72 -0.72 -0.77 -0.81 -0.88 -0.95 -1.02 -1.09 -1.16 -1.23 -1.30 -1.33 -1.36 -1.41 -1.42 -1.46 -1.47 -1.51 -1.62 -1.69 -1.73 -1.77 -1.87 -1.91 -1.93 -1.96 -2.00 -2.05 -2.11 -2.12 -2.20 -2.18 -2.20 -2.22 -2.28 -2.36 -2.41 -2.46 -2.53 -2.59 -2.71 -2.77 -2.79 -2.83 -2.87 -2.94 -3.03 -3.12 -3.18 -3.25 -3.32 -3.42 -3.51 -3.60 -3.69 -3.84 -3.95 -4.05 -4.17 -4.24 -4.35 -4.42 -4.52 -4.60 -4.70 -4.80 -4.86 -4.92 -4.94 -4.96 -5.08
0.42 0.52 0.69 0.85 1.03 1.11 1.23 1.38 1.53 1.62 1.59 1.53 1.51 1.48 1.47 1.48 1.46 1.41 1.42 1.33 0.84 0.35 0.54 0.67 0.76 0.74 0.67 0.71 0.68 0.65 0.76 0.75 0.73 0.74 0.73 0.68 0.70 0.72 0.73 0.74 0.73 0.72 0.73 0.72 0.76 0.83 0.91 0.97 1.04 1.09 1.19 1.29 1.38 1.37 1.40 1.41 1.43 1.45 1.49 1.53 1.55 1.55 1.56 1.58 1.65 1.61 1.60 1.59 1.62 1.59 1.54 1.54 1.47 1.48 1.39 1.41 1.45 1.41 1.38 1.35 1.33 1.29 1.23 1.15 1.09 1.08 1.08 1.09 1.08 1.04 0.99 1.00 0.84 0.70 0.66 0.60 0.62 0.54 0.60 0.66 0.77 0.85 0.90 0.93 0.98 1.00 1.06 1.09 1.15 1.23 1.37 1.59 1.71 1.83 2.13 2.50 2.67 3.12 3.69 3.73 3.83 3.53 3.43 3.50 3.49 3.44 3.37 3.31 3.24 3.18 3.10 2.97 2.98 3.00 3.02 -9999.00 -9999.00 -9999.00 -9999.00 -9999.00 -9999.00 -9999.00 -9999.00 -9999.00 -9999.00 -9999.00 -9999.00 -9999.00 -9999.00 -9999.00 -9999.00 -9999.00 -9999.00 -9999.00 -9999.00 -9999.00 -9999.00 -9999.00 -9999.00 -9999.00 -9999.00 -9999.00 -9999.00 -9999.00 -9999.00 -9999.00 -9999.00 -9999.00 -9999.00 -9999.00 -9999.00 -9999.00 -9999.00 -9999.00 -9999.00 -9999.00 -9999.00 -9999.00 -9999.00 -9999.00 -9999.00 -9999.00 -9999.00 -9999.00 -9999.00 -9999.00 -9999.00 -9999.00 -9999.00 -9999.00 -9999.00 -9999.00 -9999.00 -9999.00 -9999.00 -9999.00 -9999.00 -9999.00 -9999.00 -9999.00 -9999.00 -9999.00 -9999.00 -9999.00 -9999.00 -9999.00 -9999.00 -9999.00 -9999.00 -9999.00 -9999.00 -9999.00 -9999.00 -9999.00 -9999.00 -9999.00 -9999.00 -9999.00 -9999.00 -9999.00 -9999.00 -9999.00 -9999.00 -9999.00 -9999.00 -9999.00 -9999.00 -9999.00 -9999.00 -9999.00 -9999.00 -9999.00 -9999.00 -9999.00 -9999.00 -9999.00 -9999.00 -9999.00 -9999.00 -9999.00 -9999.00 -9999.00 -9999.00 -9999.00 -9999.00 -9999.00 -9999.00 -9999.00 -9999.00 -9999.00 -9999.00 -9999.00 -9999.00 -9999.00 -9999.00 -9999.00 -9999.00 -9999.00 -9999.00 -9999.00 -9999.00 -9999.00 -9999.00 -9999.00 -9999.00 -9999.00 -9999.00 -9999.00 -9999.00 -9999.00 -9999.00 3.18 2.88 2.51 2.06 1.54 1.23 1.14 1.10 0.97 0.85 0.75 0.76 0.66 0.56 0.47 0.37 0.28 0.35 0.31 0.58 0.54 0.29 0.17 -0.03 -0.10 -0.19 -0.28 -0.34 -0.42 -0.47 -0.55 -0.67 -0.71 -0.71 -0.76 -0.82 -0.89 -0.96 -1.03 -1.10 -1.17 -1.24 -1.26 -1.30 -1.33 -1.33 -1.39 -1.41 -1.45 -1.51 -1.59 -1.68 -1.69 -1.76 -1.87 -1.86 -1.91 -1.92 -1.97 -2.03 -2.06 -2.10 -2.13 -2.12 -2.17 -2.23 -2.29 -2.36 -2.42 -2.46 -2.55 -2.60 -2.69 -2.76 -2.80 -2.84 -2.92 -3.04 -3.13 -3.22 -3.24 -3.31 -3.38 -3.46 -3.55 -3.67 -3.77 -3.94 -4.02 -4.11 -4.22 -4.28 -4.38 -4.45 -4.56 -4.63 -4.73 -4.81 -4.87 -4.90 -4.94
0.47 0.59 0.76 0.93 1.09 1.26 1.40 1.52 1.63 1.62 1.59 1.58 1.58 1.52 1.48 1.48 1.45 1.43 1.39 1.19 0.85 0.56 0.67 0.82 0.78 0.77 0.75 0.72 0.77 0.79 0.80 0.81 0.80 0.76 0.73 0.71 0.72 0.78 0.79 0.76 0.74 0.78 0.78 0.80 0.94 0.97 1.01 1.08 1.15 1.23 1.31 1.38 1.45 1.52 1.48 1.55 1.56 1.63 1.63 1.62 1.63 1.64 1.65 1.67 1.68 1.69 1.67 1.67 1.65 1.61 1.58 1.56 1.53 1.46 1.39 1.41 1.44 1.40 1.41 1.38 1.33 1.29 1.25 1.16 1.15 1.13 1.14 1.15 1.12 1.05 1.04 0.97 0.77 0.65 0.59 0.59 0.61 0.65 0.77 0.89 0.99 1.03 1.07 1.08 1.09 1.27 1.40 1.53 1.67 1.79 1.93 2.18 2.31 2.50 2.78 3.24 3.77 3.88 3.86 3.63 3.66 3.13 3.00 3.02 3.23 3.11 2.98 -9999.00 -9999.00 -9999.00 -9999.00 -9999.00 -9999.00 -9999.00 -9999.00 -9999.00 -9999.00 -9999.00 -9999.00 -9999.00 -9999.00 -9999.00 -9999.00 -9999.00 -9999.00 -9999.00 -9999.00 -9999.00 -9999.00 -9999.00 -9999.00 -9999.00 -9999.00 -9999.00 -9999.00 -9999.00 -9999.00 -9999.00 -9999.00 -9999.00 -9999.00 -9999.00 -9999.00 -9999.00 -9999.00 -9999.00 -9999.00 -9999.00 -9999.00 -9999.00 -9999.00 -9999.00 -9999.00 -9999.00 -9999.00 -9999.00 -9999.00 -9999.00 -9999.00 -9999.00 -9999.00 -9999.00 -9999.00 -9999.00 -9999.00 -9999.00 -9999.00 -9999.00 -9999.00 -9999.00 -9999.00 -9999.00 -9999.00 -9999.00 -9999.00 -9999.00 -9999.00 -9999.00 -9999.00 -9999.00 -9999.00 -9999.00 -9999.00 -9999.00 -9999.00 -9999.00 -9999.00 -9999.00 -9999.00 -9999.00 -9999.00 -9999.00 -9999.00 -9999.00 -9999.00 -9999.00 -9999.00 -9999.00 -9999.00 -9999.00 -9999.00 -9999.00 -9999.00 -9999.00 -9999.00 -9999.00 -9999.00 -9999.00 -9999.00 -9999.00 -9999.00 -9999.00 -9999.00 -9999.00 -9999.00 -9999.00 -9999.00 -9999.00 -9999.00 -9999.00 -9999.00 -9999.00 -9999.00 -9999.00 -9999.00 -9999.00 -9999.00 -9999.00 -9999.00 -9999.00 -9999.00 -9999.00 -9999.00 -9999.00 -9999.00 -9999.00 -9999.00 -9999.00 -9999.00 -9999.00 -9999.00 -9999.00 -9999.00 -9999.00 -9999.00 -9999.00 -9999.00 -9999.00 -9999.00 -9999.00 -9999.00 -9999.00 2.97 3.58 2.63 2.19 1.76 1.33 1.25 1.13 1.00 0.90 0.80 0.75 0.69 0.59 0.53 0.45 0.36 0.29 0.22 0.21 0.53 0.44 0.27 0.05 -0.01 -0.14 -0.25 -0.32 -0.39 -0.45 -0.46 -0.45 -0.63 -0.71 -0.73 -0.77 -0.84 -0.91 -0.98 -1.05 -1.12 -1.16 -1.18 -1.21 -1.24 -1.31 -1.26 -1.36 -1.37 -1.45 -1.52 -1.62 -1.66 -1.60 -1.82 -1.81 -1.81 -1.86 -1.90 -1.95 -1.99 -2.02 -2.08 -2.08 -2.11 -2.17 -2.24 -2.29 -2.35 -2.43 -2.47 -2.55 -2.60 -2.70 -2.76 -2.85 -2.91 -3.02 -3.15 -3.26 -3.31 -3.33 -3.36 -3.43 -3.56 -3.68 -3.78 -3.85 -4.05 -4.09 -4.19 -4.22 -4.35 -4.41 -4.49 -4.57 -4.67 -4.75 -4.82 -4.87
0.56 0.71 0.86 1.03 1.20 1.37 1.49 1.65 1.65 1.61 1.62 1.60 1.55 1.53 1.45 1.42 1.44 1.40 1.34 1.18 0.91 0.65 0.75 0.84 0.83 0.80 0.76 0.76 0.77 0.78 0.80 0.80 0.75 0.74 0.69 0.76 0.75 0.81 0.79 0.75 0.76 0.79 0.81 0.91 1.01 1.05 1.10 1.19 1.24 1.33 1.38 1.44 1.50 1.55 1.65 1.67 1.69 1.73 1.71 1.74 1.72 1.73 1.75 1.77 1.74 1.76 1.73 1.67 1.66 1.60 1.58 1.54 1.54 1.43 1.39 1.42 1.39 1.41 1.45 1.35 1.33 1.27 1.22 1.21 1.19 1.20 1.18 1.14 1.07 1.07 1.09 0.94 0.79 0.62 0.56 0.58 0.61 0.71 0.86 0.99 1.15 1.18 1.27 1.38 1.43 1.68 1.83 2.00 2.20 2.32 2.48 2.83 3.06 3.33 3.74 3.64 3.59 3.43 3.32 3.13 2.97 2.86 2.90 -9999.00 -9999.00 -9999.00 -9999.00 -9999.00 -9999.00 -9999.00 -9999.00 -9999.00 -9999.00 -9999.00 -9999.00 -9999.00 -9999.00 -9999.00 -9999.00 -9999.00 -9999.00 -9999.00 -9999.00 -9999.00 -9999.00 -9999.00 -9999.00 -9999.00 -9999.00 -9999.00 -9999.00 -9999.00 -9999.00 -9999.00 -9999.00 -9999.00 -9999.00 -9999.00 -9999.00 -9999.00 -9999.00 -9999.00 -9999.00 -9999.00 -9999.00 -9999.00 -9999.00 -9999.00 -9999.00 -9999.00 -9999.00 -9999.00 -9999.00 -9999.00 -9999.00 -9999.00 -9999.00 -9999.00 -9999.00 -9999.00 -9999.00 -9999.00 -9999.00 -9999.00 -9999.00 -9999.00 -9999.00 -9999.00 -9999.00 -9999.00 -9999.00 -9999.00 -9999.00 -9999.00 -9999.00 -9999.00 -9999.00 -9999.00 -9999.00 -9999.00 -9999.00 -9999.00 -9999.00 -9999.00 -9999.00 -9999.00 -9999.00 -9999.00 -9999.00 -9999.00 -9999.00 -9999.00 -9999.00 -9999.00 -9999.00 -9999.00 -9999.00 -9999.00 -9999.00 -9999.00 -9999.00 -9999.00 -9999.00 -9999.00 -9999.00 -9999.00 -9999.00 -9999.00 -9999.00 -9999.00 -9999.00 -9999.00 -9999.00 -9999.00 -9999.00 -9999.00 -9999.00 -9999.00 -9999.00 -9999.00 -9999.00 -9999.00 -9999.00 -9999.00 -9999.00 -9999.00 -9999.00 -9999.00 -9999.00 -9999.00 -9999.00 -9999.00 -9999.00 -9999.00 -9999.00 -9999.00 -9999.00 -9999.00 -9999.00 -9999.00 -9999.00 -9999.00 -9999.00 -9999.00 -9999.00 -9999.00 -9999.00 -9999.00 -9999.00 -9999.00 -9999.00 -9999.00 -9999.00 2.77 3.73 3.05 2.49 1.94 1.38 1.24 1.05 0.98 0.93 0.86 0.79 0.68 0.64 0.57 0.50 0.40 0.36 0.31 0.26 0.11 0.48 0.39 0.26 -0.01 -0.16 -0.23 -0.30 -0.40 -0.42 -0.40 -0.44 -0.42 -0.46 -0.70 -0.77 -0.78 -0.84 -0.90 -0.96 -1.02 -1.06 -1.10 -1.11 -1.16 -1.20 -1.23 -1.21 -1.30 -1.36 -1.45 -1.53 -1.64 -1.70 -1.75 -1.76 -1.76 -1.78 -1.87 -1.87 -1.92 -1.99 -2.04 -2.05 -2.04 -2.13 -2.18 -2.20 -2.27 -2.37 -2.45 -2.48 -2.56 -2.60 -2.74 -2.81 -2.90 -3.00 -3.11 -3.24 -3.39 -3.43 -3.40 -3.44 -3.54 -3.69 -3.79 -3.89 -3.92 -4.06 -4.13 -4.19 -4.29 -4.36 -4.45 -4.54 -4.60 -4.67 -4.75
0.62 0.78 0.92 1.08 1.25 1.42 1.57 1.65 1.64 1.64 1.63 1.62 1.60 1.49 1.43 1.43 1.42 1.41 1.29 1.08 0.96 0.74 0.80 0.84 0.86 0.87 0.88 0.85 0.81 0.82 0.82 0.83 0.79 0.80 0.80 0.80 0.83 0.85 0.77 0.84 0.86 0.89 0.94 1.00 1.11 1.10 1.18 1.33 1.38 1.45 1.51 1.56 1.62 1.72 1.78 1.78 1.81 1.81 1.83 1.84 1.82 1.82 1.79 1.79 1.78 1.77 1.75 1.72 1.66 1.59 1.54 1.52 1.50 1.40 1.39 1.42 1.40 1.40 1.40 1.34 1.30 1.27 1.24 1.24 1.25 1.19 1.14 1.04 0.98 1.05 1.09 0.92 0.75 0.60 0.61 0.67 0.73 0.81 0.95 1.11 1.23 1.41 1.52 1.72 1.89 2.09 2.29 2.48 2.73 2.86 2.99 3.46 3.71 3.52 3.41 3.27 3.08 2.98 2.89 2.87 -9999.00 -9999.00 -9999.00 -9999.00 -9999.00 -9999.00 -9999.00 -9999.00 -9999.00 -9999.00 -9999.00 -9999.00 -9999.00 -9999.00 -9999.00 -9999.00 -9999.00 -9999.00 -9999.00 -9999.00 -9999.00 -9999.00 -9999.00 -9999.00 -9999.00 -9999.00 -9999.00 -9999.00 -9999.00 -9999.00 -9999.00 -9999.00 -9999.00 -9999.00 -9999.00 -9999.00 -9999.00 -9999.00 -9999.00 -9999.00 -9999.00 -9999.00 -9999.00 -9999.00 -9999.00 -9999.00 -9999.00 -9999.00 -9999.00 -9999.00 -9999.00 -9999.00 -9999.00 -9999.00 -9999.00 -9999.00 -9999.00 -9999.00 -9999.00 -9999.00 -9999.00 -9999.00 -9999.00 -9999.00 -9999.00 -9999.00 -9999.00 -9999.00 -9999.00 -9999.00 -9999.00 -9999.00 -9999.00 -9999.00 -9999.00 -9999.00 -9999.00 -9999.00 -9999.00 -9999.00 -9999.00 -9999.00 -9999.00 -9999.00 -9999.00 -9999.00 -9999.00 -9999.00 -9999.00 -9999.00 -9999.00 -9999.00 -9999.00 -9999.00 -9999.00 -9999.00 -9999.00 -9999.00 -9999.00 -9999.00 -9999.00 -9999.00 -9999.00 -9999.00 -9999.00 -9999.00 -9999.00 -9999.00 -9999.00 -9999.00 -9999.00 -9999.00 -9999.00 -9999.00 -9999.00 -9999.00 -9999.00 -9999.00 -9999.00 -9999.00 -9999.00 -9999.00 -9999.00 -9999.00 -9999.00 -9999.00 -9999.00 -9999.00 -9999.00 -9999.00 -9999.00 -9999.00 -9999.00 -9999.00 -9999.00 -9999.00 -9999.00 -9999.00 -9999.00 -9999.00 -9999.00 -9999.00 -9999.00 -9999.00 -9999.00 -9999.00 -9999.00 -9999.00 -9999.00 -9999.00 -9999.00 -9999.00 -9999.00 -9999.00 2.66 3.02 3.61 2.58 2.11 1.57 1.29 1.17 1.08 1.03 0.89 0.65 0.70 0.55 0.51 0.53 0.46 0.37 0.28 0.23 0.38 0.42 0.48 0.26 0.04 -0.06 -0.17 -0.38 -0.38 -0.36 -0.50 -0.33 -0.46 -0.44 -0.48 -0.57 -0.71 -0.81 -0.85 -0.89 -0.95 -1.00 -1.00 -1.04 -1.05 -1.11 -1.16 -1.23 -1.19 -1.25 -1.34 -1.43 -1.52 -1.59 -1.67 -1.69 -1.71 -1.69 -1.75 -1.81 -1.84 -1.90 -2.00 -2.06 -2.02 -2.05 -2.11 -2.16 -2.21 -2.28 -2.39 -2.47 -2.50 -2.59 -2.65 -2.77 -2.85 -2.97 -3.10 -3.20 -3.30 -3.40 -3.42 -3.45 -3.56 -3.67 -3.79 -3.85 -3.88 -4.00 -4.09 -4.17 -4.21 -4.31 -4.39 -4.48 -4.53 -4.60
0.71 0.85 1.03 1.15 1.29 1.46 1.55 1.57 1.61 1.66 1.64 1.65 1.57 1.43 1.45 1.45 1.44 1.42 1.21 0.92 0.70 0.69 0.79 0.88 0.93 0.90 0.86 0.89 0.86 0.85 0.81 0.85 0.85 0.85 0.85 0.85 0.86 0.84 0.89 0.94 0.96 1.00 1.06 1.11 1.12 1.21 1.36 1.47 1.52 1.57 1.63 1.69 1.75 1.84 1.86 1.88 1.89 1.89 1.92 1.88 1.85 1.78 1.74 1.74 1.75 1.73 1.58 1.57 1.56 1.56 1.45 1.43 1.39 1.37 1.38 1.35 1.33 1.37 1.35 1.32 1.27 1.23 1.19 1.23 1.20 1.10 1.01 0.91 0.95 1.03 0.84 0.81 0.64 0.70 0.76 0.73 0.86 1.00 1.10 1.30 1.53 1.72 1.92 2.09 2.32 2.49 2.73 3.14 3.27 3.49 3.56 3.44 3.25 3.13 3.02 2.88 2.90 2.77 -9999.00 -9999.00 -9999.00 -9999.00 -9999.00 -9999.00 -9999.00 -9999.00 -9999.00 -9999.00 -9999.00 -9999.00 -9999.00 -9999.00 -9999.00 -9999.00 -9999.00 -9999.00 -9999.00 -9999.00 -9999.00 -9999.00 -9999.00 -9999.00 -9999.00 -9999.00 -9999.00 -9999.00 -9999.00 -9999.00 -9999.00 -9999.00 -9999.00 -9999.00 -9999.00 -9999.00 -9999.00 -9999.00 -9999.00 -9999.00 -9999.00 -9999.00 -9999.00 -9999.00 -9999.00 -9999.00 -9999.00 -9999.00 -9999.00 -9999.00 -9999.00 -9999.00 -9999.00 -9999.00 -9999.00 -9999.00 -9999.00 -9999.00 -9999.00 -9999.00 -9999.00 -9999.00 -9999.00 -9999.00 -9999.00 -9999.00 -9999.00 -9999.00 -9999.00 -9999.00 -9999.00 -9999.00 -9999.00 -9999.00 -9999.00 -9999.00 -9999.00 -9999.00 -9999.00 -9999.00 -9999.00 -9999.00 -9999.00 -9999.00 -9999.00 -9999.00 -9999.00 -9999.00 -9999.00 -9999.00 -9999.00 -9999.00 -9999.00 -9999.00 -9999.00 -9999.00 -9999.00 -9999.00 -9999.00 -9999.00 -9999.00 -9999.00 -9999.00 -9999.00 -9999.00 -9999.00 -9999.00 -9999.00 -9999.00 -9999.00 -9999.00 -9999.00 -9999.00 -9999.00 -9999.00 -9999.00 -9999.00 -9999.00 -9999.00 -9999.00 -9999.00 -9999.00 -9999.00 -9999.00 -9999.00 -9999.00 -9999.00 -9999.00 -9999.00 -9999.00 -9999.00 -9999.00 -9999.00 -9999.00 -9999.00 -9999.00 -9999.00 -9999.00 -9999.00 -9999.00 -9999.00 -9999.00 -9999.00 -9999.00 -9999.00 -9999.00 -9999.00 -9999.00 -9999.00 -9999.00 -9999.00 -9999.00 -9999.00 -9999.00 -9999.00 -9999.00 -9999.00 -9999.00 2.96 3.50 2.91 2.33 1.81 1.42 1.19 1.16 0.95 0.71 0.66 0.65 0.60 0.61 0.51 0.44 0.38 0.31 0.37 0.42 0.48 0.60 0.37 0.05 -0.08 -0.37 -0.36 -0.36 -0.36 -0.50 -0.32 -0.31 -0.48 -0.48 -0.52 -0.61 -0.71 -0.75 -0.81 -0.85 -0.91 -0.92 -1.02 -1.01 -1.04 -1.10 -1.13 -1.17 -1.18 -1.22 -1.37 -1.48 -1.50 -1.58 -1.55 -1.67 -1.62 -1.65 -1.74 -1.79 -1.83 -1.88 -2.01 -2.07 -2.01 -2.05 -2.09 -2.12 -2.20 -2.30 -2.43 -2.49 -2.53 -2.63 -2.71 -2.81 -2.89 -3.02 -3.12 -3.19 -3.33 -3.37 -3.44 -3.55 -3.65 -3.72 -3.81 -3.86 -3.91 -4.03 -4.12 -4.16 -4.27 -4.31 -4.40 -4.47
0.78 0.94 1.12 1.26 1.37 1.45 1.55 1.58 1.58 1.66 1.63 1.57 1.50 1.46 1.47 1.45 1.43 1.38 1.20 0.94 0.58 0.49 0.75 0.88 0.94 0.85 0.88 0.86 0.89 0.87 0.86 0.83 0.92 0.91 0.95 0.91 0.87 0.92 0.96 1.00 1.05 1.09 1.09 1.11 1.19 1.32 1.46 1.61 1.66 1.71 1.76 1.81 1.87 1.95 1.97 2.00 2.03 1.94 1.91 1.87 1.83 1.71 1.69 1.67 1.70 1.64 1.57 1.52 1.54 1.45 1.44 1.43 1.42 1.37 1.36 1.32 1.32 1.30 1.23 1.24 1.19 1.15 1.11 1.13 1.12 0.98 0.88 0.84 0.90 0.90 0.69 0.69 0.77 0.79 0.81 0.85 1.00 1.16 1.55 1.72 1.90 2.12 2.35 2.51 2.71 2.87 3.35 3.73 3.64 3.49 3.40 3.12 3.05 2.85 2.79 -9999.00 -9999.00 -9999.00 -9999.00 -9999.00 -9999.00 -9999.00 -9999.00 -9999.00 -9999.00 -9999.00 -9999.00 -9999.00 -9999.00 -9999.00 -9999.00 -9999.00 -9999.00 -9999.00 -9999.00 -9999.00 -9999.00 -9999.00 -9999.00 -9999.00 -9999.00 -9999.00 -9999.00 -9999.00 -9999.00 -9999.00 -9999.00 -9999.00 -9999.00 -9999.00 -9999.00 -9999.00 -9999.00 -9999.00 -9999.00 -9999.00 -9999.00 -9999.00 -9999.00 -9999.00 -9999.00 -9999.00 -9999.00 -9999.00 -9999.00 -9999.00 -9999.00 -9999.00 -9999.00 -9999.00 -9999.00 -9999.00 -9999.00 -9999.00 -9999.00 -9999.00 -9999.00 -9999.00 -9999.00 -9999.00 -9999.00 -9999.00 -9999.00 -9999.00 -9999.00 -9999.00 -9999.00 -9999.00 -9999.00 -9999.00 -9999.00 -9999.00 -9999.00 -9999.00 -9999.00 -9999.00 -9999.00 -9999.00 -9999.00 -9999.00 -9999.00 -9999.00 -9999.00 -9999.00 -9999.00 -9999.00 -9999.00 -9999.00 -9999.00 -9999.00 -9999.00 -9999.00 -9999.00 -9999.00 -9999.00 -9999.00 -9999.00 -9999.00 -9999.00 -9999.00 -9999.00 -9999.00 -9999.00 -9999.00 -9999.00 -9999.00 -9999.00 -9999.00 -9999.00 -9999.00 -9999.00 -9999.00 -9999.00 -9999.00 -9999.00 -9999.00 -9999.00 -9999.00 -9999.00 -9999.00 -9999.00 -9999.00 -9999.00 -9999.00 -9999.00 -9999.00 -9999.00 -9999.00 -9999.00 -9999.00 -9999.00 -9999.00 -9999.00 -9999.00 -9999.00 -9999.00 -9999.00 -9999.00 -9999.00 -9999.00 -9999.00 -9999.00 -9999.00 -9999.00 -9999.00 -9999.00 -9999.00 -9999.00 -9999.00 -9999.00 -9999.00 -9999.00 -9999.00 -9999.00 -9999.00 -9999.00 -9999.00 2.74 3.08 3.33 2.77 2.11 1.66 1.25 1.01 0.77 0.62 0.50 0.56 0.60 0.54 0.46 0.35 0.37 0.39 0.42 0.44 0.50 0.30 0.46 0.11 0.10 -0.11 -0.22 -0.24 -0.34 -0.25 -0.29 -0.33 -0.37 -0.46 -0.51 -0.55 -0.63 -0.68 -0.68 -0.78 -0.80 -0.89 -0.87 -0.90 -0.96 -1.05 -1.08 -1.10 -1.15 -1.16 -1.24 -1.42 -1.54 -1.47 -1.44 -1.57 -1.53 -1.54 -1.63 -1.69 -1.76 -1.81 -1.86 -1.96 -2.02 -2.01 -2.03 -2.06 -2.14 -2.23 -2.33 -2.45 -2.51 -2.57 -2.67 -2.76 -2.84 -2.92 -3.03 -3.11 -3.20 -3.28 -3.37 -3.47 -3.55 -3.65 -3.78 -3.84 -3.91 -3.98 -4.06 -4.12 -4.18 -4.22 -4.32
0.91 1.04 1.19 1.31 1.47 1.50 1.56 1.60 1.59 1.62 1.59 1.56 1.49 1.43 1.47 1.44 1.41 1.34 1.09 0.90 0.67 0.72 0.79 0.87 0.92 0.84 0.85 0.82 0.84 0.87 0.86 0.79 0.90 1.00 0.96 0.92 0.89 0.98 1.02 1.07 1.11 1.14 1.17 1.21 1.35 1.49 1.61 1.72 1.81 1.85 1.90 1.95 2.00 2.08 2.04 2.03 2.01 1.93 1.90 1.83 1.70 1.63 1.61 1.67 1.61 1.55 1.50 1.50 1.50 1.44 1.44 1.43 1.40 1.36 1.31 1.28 1.29 1.29 1.25 1.21 1.14 1.04 1.04 1.00 0.96 0.95 0.84 0.78 0.76 0.75 0.80 0.82 0.86 0.99 1.04 1.05 1.16 1.61 2.11 2.41 2.56 2.71 2.73 3.04 3.35 3.26 3.89 3.70 3.26 3.20 3.14 2.94 -9999.00 -9999.00 -9999.00 -9999.00 -9999.00 -9999.00 -9999.00 -9999.00 -9999.00 -9999.00 -9999.00 -9999.00 -9999.00 -9999.00 -9999.00 -9999.00 -9999.00 -9999.00 -9999.00 -9999.00 -9999.00 -9999.00 -9999.00 -9999.00 -9999.00 -9999.00 -9999.00 -9999.00 -9999.00 -9999.00 -9999.00 -9999.00 -9999.00 -9999.00 -9999.00 -9999.00 -9999.00 -9999.00 -9999.00 -9999.00 -9999.00 -9999.00 -9999.00 -9999.00 -9999.00 -9999.00 -9999.00 -9999.00 -9999.00 -9999.00 -9999.00 -9999.00 -9999.00 -9999.00 -9999.00 -9999.00 -9999.00 -9999.00 -9999.00 -9999.00 -9999.00 -9999.00 -9999.00 -9999.00 -9999.00 -9999.00 -9999.00 -9999.00 -9999.00 -9999.00 -9999.00 -9999.00 -9999.00 -9999.00 -9999.00 -9999.00 -9999.00 -9999.00 -9999.00 -9999.00 -9999.00 -9999.00 -9999.00 -9999.00 -9999.00 -9999.00 -9999.00 -9999.00 -9999.00 -9999.00 -9999.00 -9999.00 -9999.00 -9999.00 -9999.00 -9999.00 -9999.00 -9999.00 -9999.00 -9999.00 -9999.00 -9999.00 -9999.00 -9999.00 -9999.00 -9999.00 -9999.00 -9999.00 -9999.00 -9999.00 -9999.00 -9999.00 -9999.00 -9999.00 -9999.00 -9999.00 -9999.00 -9999.00 -9999.00 -9999.00 -9999.00 -9999.00 -9999.00 -9999.00 -9999.00 -9999.00 -9999.00 -9999.00 -9999.00 -9999.00 -9999.00 -9999.00 -9999.00 -9999.00 -9999.00 -9999.00 -9999.00 -9999.00 -9999.00 -9999.00 -9999.00 -9999.00 -9999.00 -9999.00 -9999.00 -9999.00 -9999.00 -9999.00 -9999.00 -9999.00 -9999.00 -9999.00 -9999.00 -9999.00 -9999.00 -9999.00 -9999.00 -9999.00 -9999.00 -9999.00 -9999.00 -9999.00 -9999.00 -9999.00 -9999.00 -9999.00 2.79 3.21 3.50 2.95 2.36 1.77 1.27 1.14 0.83 0.75 0.77 0.79 0.59 0.58 0.49 0.47 0.43 0.38 0.38 0.41 0.28 0.50 0.48 0.49 0.11 -0.08 -0.08 -0.20 -0.19 -0.23 -0.26 -0.30 -0.35 -0.41 -0.46 -0.54 -0.58 -0.64 -0.65 -0.66 -0.75 -0.79 -0.82 -0.82 -0.93 -0.89 -1.00 -0.97 -1.04 -1.10 -1.15 -1.28 -1.45 -1.46 -1.38 -1.41 -1.43 -1.45 -1.53 -1.60 -1.67 -1.73 -1.77 -1.84 -1.92 -2.04 -2.02 -2.02 -2.08 -2.20 -2.27 -2.37 -2.46 -2.54 -2.62 -2.72 -2.79 -2.88 -2.94 -3.01 -3.10 -3.24 -3.35 -3.42 -3.50 -3.55 -3.64 -3.79 -3.84 -3.92 -3.99 -4.06 -4.12 -4.19
0.97 1.14 1.29 1.41 1.57 1.60 1.62 1.60 1.60 1.62 1.60 1.54 1.45 1.40 1.39 1.41 1.39 1.29 1.07 0.77 0.61 0.69 0.80 0.92 0.91 0.85 0.88 0.86 0.82 0.88 0.88 0.83 0.91 0.96 0.95 0.93 0.96 1.05 1.09 1.12 1.15 1.18 1.24 1.35 1.49 1.62 1.71 1.83 1.90 1.96 2.02 2.11 2.03 2.01 1.98 1.96 1.93 1.92 1.79 1.71 1.63 1.60 1.63 1.58 1.52 1.54 1.49 1.49 1.49 1.45 1.42 1.38 1.34 1.32 1.30 1.24 1.40 1.54 1.56 1.59 1.54 1.38 1.25 1.19 1.11 1.08 1.00 0.94 0.96 0.87 0.91 0.96 1.14 1.21 1.21 1.34 1.53 2.06 2.67 3.09 3.26 3.18 3.11 3.58 3.86 3.73 3.47 3.29 3.11 3.03 -9999.00 -9999.00 -9999.00 -9999.00 -9999.00 -9999.00 -9999.00 -9999.00 -9999.00 -9999.00 -9999.00 -9999.00 -9999.00 -9999.00 -9999.00 -9999.00 -9999.00 -9999.00 -9999.00 -9999.00 -9999.00 -9999.00 -9999.00 -9999.00 -9999.00 -9999.00 -9999.00 -9999.00 -9999.00 -9999.00 -9999.00 -9999.00 -9999.00 -9999.00 -9999.00 -9999.00 -9999.00 -9999.00 -9999.00 -9999.00 -9999.00 -9999.00 -9999.00 -9999.00 -9999.00 -9999.00 -9999.00 -9999.00 -9999.00 -9999.00 -9999.00 -9999.00 -9999.00 -9999.00 -9999.00 -9999.00 -9999.00 -9999.00 -9999.00 -9999.00 -9999.00 -9999.00 -9999.00 -9999.00 -9999.00 -9999.00 -9999.00 -9999.00 -9999.00 -9999.00 -9999.00 -9999.00 -9999.00 -9999.00 -9999.00 -9999.00 -9999.00 -9999.00 -9999.00 -9999.00 -9999.00 -9999.00 -9999.00 -9999.00 -9999.00 -9999.00 -9999.00 -9999.00 -9999.00 -9999.00 -9999.00 -9999.00 -9999.00 -9999.00 -9999.00 -9999.00 -9999.00 -9999.00 -9999.00 -9999.00 -9999.00 -9999.00 -9999.00 -9999.00 -9999.00 -9999.00 -9999.00 -9999.00 -9999.00 -9999.00 -9999.00 -9999.00 -9999.00 -9999.00 -9999.00 -9999.00 -9999.00 -9999.00 -9999.00 -9999.00 -9999.00 -9999.00 -9999.00 -9999.00 -9999.00 -9999.00 -9999.00 -9999.00 -9999.00 -9999.00 -9999.00 -9999.00 -9999.00 -9999.00 -9999.00 -9999.00 -9999.00 -9999.00 -9999.00 -9999.00 -9999.00 -9999.00 -9999.00 -9999.00 -9999.00 -9999.00 -9999.00 -9999.00 -9999.00 -9999.00 -9999.00 -9999.00 -9999.00 -9999.00 -9999.00 -9999.00 -9999.00 -9999.00 -9999.00 -9999.00 -9999.00 -9999.00 -9999.00 -9999.00 -9999.00 -9999.00 -9999.00 -9999.00 -9999.00 2.71 2.75 3.10 3.45 2.62 2.01 1.37 1.20 1.00 1.00 0.82 0.70 0.66 0.60 0.57 0.53 0.50 0.46 0.41 0.38 0.39 0.35 0.46 0.48 0.22 0.08 -0.06 -0.12 -0.16 -0.20 -0.19 -0.20 -0.25 -0.35 -0.43 -0.49 -0.57 -0.58 -0.64 -0.68 -0.65 -0.71 -0.78 -0.82 -0.85 -0.85 -0.86 -0.88 -0.95 -0.97 -1.06 -1.15 -1.30 -1.43 -1.37 -1.33 -1.34 -1.36 -1.43 -1.52 -1.59 -1.66 -1.70 -1.73 -1.81 -1.89 -1.96 -1.97 -2.03 -2.14 -2.24 -2.31 -2.41 -2.48 -2.57 -2.67 -2.75 -2.83 -2.91 -2.97 -3.07 -3.17 -3.28 -3.35 -3.46 -3.54 -3.57 -3.69 -3.78 -3.85 -3.93 -4.02 -4.07
1.07 1.22 1.34 1.45 1.56 1.57 1.61 1.59 1.61 1.60 1.56 1.48 1.40 1.39 1.34 1.38 1.32 1.26 1.10 0.93 0.81 0.84 0.87 0.89 0.94 0.91 0.89 0.87 0.87 0.89 0.87 0.87 1.02 0.99 0.97 0.94 1.04 1.11 1.14 1.17 1.20 1.23 1.30 1.46 1.62 1.74 1.82 1.91 1.96 2.02 2.04 2.06 1.98 1.94 1.91 1.88 1.86 1.81 1.75 1.73 1.65 1.58 1.58 1.58 1.50 1.50 1.46 1.44 1.44 1.41 1.37 1.33 1.29 1.31 1.30 1.50 1.71 1.64 1.62 1.67 1.70 1.62 1.58 1.49 1.43 1.39 1.31 1.32 1.26 1.24 1.29 1.33 1.37 1.40 1.53 1.72 1.90 2.51 3.12 3.66 3.95 3.97 3.80 3.66 3.58 3.47 3.38 -9999.00 -9999.00 -9999.00 -9999.00 -9999.00 -9999.00 -9999.00 -9999.00 -9999.00 -9999.00 -9999.00 -9999.00 -9999.00 -9999.00 -9999.00 -9999.00 -9999.00 -9999.00 -9999.00 -9999.00 -9999.00 -9999.00 -9999.00 -9999.00 -9999.00 -9999.00 -9999.00 -9999.00 -9999.00 -9999.00 -9999.00 -9999.00 -9999.00 -9999.00 -9999.00 -9999.00 -9999.00 -9999.00 -9999.00 -9999.00 -9999.00 -9999.00 -9999.00 -9999.00 -9999.00 -9999.00 -9999.00 -9999.00 -9999.00 -9999.00 -9999.00 -9999.00 -9999.00 -9999.00 -9999.00 -9999.00 -9999.00 -9999.00 -9999.00 -9999.00 -9999.00 -9999.00 -9999.00 -9999.00 -9999.00 -9999.00 -9999.00 -9999.00 -9999.00 -9999.00 -9999.00 -9999.00 -9999.00 -9999.00 -9999.00 -9999.00 -9999.00 -9999.00 -9999.00 -9999.00 -9999.00 -9999.00 -9999.00 -9999.00 -9999.00 -9999.00 -9999.00 -9999.00 -9999.00 -9999.00 -9999.00 -9999.00 -9999.00 -9999.00 -9999.00 -9999.00 -9999.00 -9999.00 -9999.00 -9999.00 -9999.00 -9999.00 -9999.00 -9999.00 -9999.00 -9999.00 -9999.00 -9999.00 -9999.00 -9999.00 -9999.00 -9999.00 -9999.00 -9999.00 -9999.00 -9999.00 -9999.00 -9999.00 -9999.00 -9999.00 -9999.00 -9999.00 -9999.00 -9999.00 -9999.00 -9999.00 -9999.00 -9999.00 -9999.00 -9999.00 -9999.00 -9999.00 -9999.00 -9999.00 -9999.00 -9999.00 -9999.00 -9999.00 -9999.00 -9999.00 -9999.00 -9999.00 -9999.00 -9999.00 -9999.00 -9999.00 -9999.00 -9999.00 -9999.00 -9999.00 -9999.00 -9999.00 -9999.00 -9999.00 -9999.00 -9999.00 -9999.00 -9999.00 -9999.00 -9999.00 -9999.00 -9999.00 -9999.00 -9999.00 -9999.00 -9999.00 -9999.00 -9999.00 -9999.00 -9999.00 -9999.00 -9999.00 -9999.00 -9999.00 2.67 3.03 3.46 2.93 2.16 1.66 1.19 1.09 0.95 0.82 0.78 0.71 0.68 0.64 0.61 0.57 0.43 0.42 0.39 0.35 0.32 0.21 0.41 0.41 0.16 -0.06 -0.07 -0.12 -0.17 -0.20 -0.23 -0.27 -0.28 -0.28 -0.42 -0.46 -0.48 -0.54 -0.57 -0.61 -0.64 -0.68 -0.78 -0.78 -0.77 -0.77 -0.77 -0.81 -0.90 -0.98 -1.06 -1.16 -1.36 -1.35 -1.23 -1.30 -1.32 -1.34 -1.44 -1.50 -1.58 -1.63 -1.67 -1.73 -1.79 -1.91 -1.90 -1.98 -2.06 -2.19 -2.29 -2.36 -2.46 -2.52 -2.57 -2.71 -2.78 -2.85 -2.92 -3.00 -3.11 -3.24 -3.34 -3.38 -3.46 -3.52 -3.59 -3.71 -3.78 -3.87 -3.96
1.16 1.31 1.37 1.46 1.55 1.50 1.55 1.60 1.57 1.56 1.51 1.43 1.36 1.37 1.37 1.29 1.31 1.18 1.04 0.88 0.85 0.87 0.89 0.92 0.93 0.89 0.88 0.88 0.88 0.90 0.88 0.91 1.00 1.01 0.99 1.03 1.14 1.17 1.20 1.22 1.24 1.26 1.45 1.62 1.76 1.82 1.91 2.00 2.01 2.07 2.05 2.06 1.94 1.85 1.83 1.80 1.79 1.82 1.79 1.69 1.66 1.59 1.54 1.49 1.44 1.41 1.45 1.50 1.47 1.37 1.31 1.29 1.24 1.33 1.58 1.89 1.82 1.70 1.68 1.74 1.79 2.17 2.01 1.84 1.77 1.72 1.63 1.67 1.63 1.68 1.76 1.73 1.78 1.86 2.04 2.41 2.73 2.94 3.60 4.21 3.79 3.57 3.42 3.36 3.29 -9999.00 -9999.00 -9999.00 -9999.00 -9999.00 -9999.00 -9999.00 -9999.00 -9999.00 -9999.00 -9999.00 -9999.00 -9999.00 -9999.00 -9999.00 -9999.00 -9999.00 -9999.00 -9999.00 -9999.00 -9999.00 -9999.00 -9999.00 -9999.00 -9999.00 -9999.00 -9999.00 -9999.00 -9999.00 -9999.00 -9999.00 -9999.00 -9999.00 -9999.00 -9999.00 -9999.00 -9999.00 -9999.00 -9999.00 -9999.00 -9999.00 -9999.00 -9999.00 -9999.00 -9999.00 -9999.00 -9999.00 -9999.00 -9999.00 -9999.00 -9999.00 -9999.00 -9999.00 -9999.00 -9999.00 -9999.00 -9999.00 -9999.00 -9999.00 -9999.00 -9999.00 -9999.00 -9999.00 -9999.00 -9999.00 -9999.00 -9999.00 -9999.00 -9999.00 -9999.00 -9999.00 -9999.00 -9999.00 -9999.00 -9999.00 -9999.00 -9999.00 -9999.00 -9999.00 -9999.00 -9999.00 -9999.00 -9999.00 -9999.00 -9999.00 -9999.00 -9999.00 -9999.00 -9999.00 -9999.00 -9999.00 -9999.00 -9999.00 -9999.00 -9999.00 -9999.00 -9999.00 -9999.00 -9999.00 -9999.00 -9999.00 -9999.00 -9999.00 -9999.00 -9999.00 -9999.00 -9999.00 -9999.00 -9999.00 -9999.00 -9999.00 -9999.00 -9999.00 -9999.00 -9999.00 -9999.00 -9999.00 -9999.00 -9999.00 -9999.00 -9999.00 -9999.00 -9999.00 -9999.00 -9999.00 -9999.00 -9999.00 -9999.00 -9999.00 -9999.00 -9999.00 -9999.00 -9999.00 -9999.00 -9999.00 -9999.00 -9999.00 -9999.00 -9999.00 -9999.00 -9999.00 -9999.00 -9999.00 -9999.00 -9999.00 -9999.00 -9999.00 -9999.00 -9999.00 -9999.00 -9999.00 -9999.00 -9999.00 -9999.00 -9999.00 -9999.00 -9999.00 -9999.00 -9999.00 -9999.00 -9999.00 -9999.00 -9999.00 -9999.00 -9999.00 -9999.00 -9999.00 -9999.00 -9999.00 -9999.00 -9999.00 -9999.00 -9999.00 -9999.00 -9999.00 -9999.00 -9999.00 2.64 3.14 3.46 3.14 2.58 1.91 1.46 1.14 1.02 0.94 0.75 0.69 0.69 0.63 0.62 0.55 0.53 0.46 0.40 0.39 0.41 0.52 0.68 0.36 0.34 0.03 -0.08 -0.17 -0.14 -0.18 -0.24 -0.29 -0.32 -0.33 -0.35 -0.34 -0.43 -0.44 -0.46 -0.50 -0.54 -0.62 -0.63 -0.66 -0.66 -0.63 -0.63 -0.72 -0.81 -0.90 -0.98 -1.02 -1.13 -1.33 -1.31 -1.30 -1.31 -1.34 -1.33 -1.44 -1.48 -1.56 -1.59 -1.64 -1.69 -1.78 -1.84 -1.92 -1.98 -2.13 -2.22 -2.34 -2.41 -2.51 -2.55 -2.61 -2.74 -2.80 -2.90 -2.95 -3.07 -3.15 -3.25 -3.33 -3.40 -3.47 -3.54 -3.62 -3.70 -3.79
1.22 1.35 1.40 1.47 1.48 1.49 1.56 1.54 1.49 1.41 1.35 1.34 1.36 1.30 1.32 1.25 1.26 1.20 0.97 0.80 0.86 0.92 0.92 0.95 0.92 0.92 0.90 0.86 0.87 0.91 0.95 1.07 0.98 1.01 1.06 1.16 1.19 1.23 1.22 1.22 1.23 1.37 1.56 1.73 1.83 1.90 1.98 1.99 2.02 2.05 2.06 2.02 1.91 1.80 1.75 1.74 1.76 1.73 1.71 1.67 1.60 1.56 1.49 1.39 1.42 1.47 1.51 1.53 1.44 1.38 1.32 1.30 1.40 1.52 1.80 2.11 1.94 1.77 1.78 1.81 1.92 2.04 2.39 1.96 1.99 1.97 2.03 2.10 2.09 2.13 2.18 2.20 2.28 2.42 3.04 3.43 3.76 3.35 4.20 3.73 3.42 3.28 3.21 -9999.00 -9999.00 -9999.00 -9999.00 -9999.00 -9999.00 -9999.00 -9999.00 -9999.00 -9999.00 -9999.00 -9999.00 -9999.00 -9999.00 -9999.00 -9999.00 -9999.00 -9999.00 -9999.00 -9999.00 -9999.00 -9999.00 -9999.00 -9999.00 -9999.00 -9999.00 -9999.00 -9999.00 -9999.00 -9999.00 -9999.00 -9999.00 -9999.00 -9999.00 -9999.00 -9999.00 -9999.00 -9999.00 -9999.00 -9999.00 -9999.00 -9999.00 -9999.00 -9999.00 -9999.00 -9999.00 -9999.00 -9999.00 -9999.00 -9999.00 -9999.00 -9999.00 -9999.00 -9999.00 -9999.00 -9999.00 -9999.00 -9999.00 -9999.00 -9999.00 -9999.00 -9999.00 -9999.00 -9999.00 -9999.00 -9999.00 -9999.00 -9999.00 -9999.00 -9999.00 -9999.00 -9999.00 -9999.00 -9999.00 -9999.00 -9999.00 -9999.00 -9999.00 -9999.00 -9999.00 -9999.00 -9999.00 -9999.00 -9999.00 -9999.00 -9999.00 -9999.00 -9999.00 -9999.00 -9999.00 -9999.00 -9999.00 -9999.00 -9999.00 -9999.00 -9999.00 -9999.00 -9999.00 -9999.00 -9999.00 -9999.00 -9999.00 -9999.00 -9999.00 -9999.00 -9999.00 -9999.00 -9999.00 -9999.00 -9999.00 -9999.00 -9999.00 -9999.00 -9999.00 -9999.00 -9999.00 -9999.00 -9999.00 -9999.00 -9999.00 -9999.00 -9999.00 -9999.00 -9999.00 -9999.00 -9999.00 -9999.00 -9999.00 -9999.00 -9999.00 -9999.00 -9999.00 -9999.00 -9999.00 -9999.00 -9999.00 -9999.00 -9999.00 -9999.00 -9999.00 -9999.00 -9999.00 -9999.00 -9999.00 -9999.00 -9999.00 -9999.00 -9999.00 -9999.00 -9999.00 -9999.00 -9999.00 -9999.00 -9999.00 -9999.00 -9999.00 -9999.00 -9999.00 -9999.00 -9999.00 -9999.00 -9999.00 -9999.00 -9999.00 -9999.00 -9999.00 -9999.00 -9999.00 -9999.00 -9999.00 -9999.00 -9999.00 -9999.00 -9999.00 -9999.00 -9999.00 -9999.00 -9999.00 -9999.00 -9999.00 2.64 3.09 3.25 3.32 2.95 2.21 1.74 1.41 1.12 0.93 0.80 0.76 0.71 0.61 0.65 0.61 0.57 0.53 0.46 0.44 0.59 0.73 0.73 0.65 0.42 0.20 -0.09 -0.08 -0.07 -0.13 -0.19 -0.25 -0.25 -0.33 -0.33 -0.30 -0.31 -0.34 -0.32 -0.39 -0.42 -0.46 -0.49 -0.51 -0.54 -0.59 -0.63 -0.68 -0.73 -0.82 -0.92 -0.93 -1.05 -1.16 -1.15 -1.29 -1.28 -1.33 -1.32 -1.34 -1.42 -1.45 -1.53 -1.56 -1.61 -1.68 -1.77 -1.86 -1.95 -2.07 -2.19 -2.29 -2.37 -2.43 -2.50 -2.58 -2.65 -2.76 -2.84 -2.92 -3.00 -3.11 -3.18 -3.27 -3.32 -3.40 -3.48 -3.55 -3.65
1.32 1.40 1.45 1.47 1.42 1.39 1.47 1.47 1.39 1.29 1.22 1.18 1.20 1.21 1.24 1.24 1.25 1.20 0.93 0.78 0.84 0.90 0.96 0.97 0.97 0.95 0.93 0.90 0.91 0.93 1.02 1.02 1.02 1.07 1.12 1.16 1.21 1.26 1.27 1.25 1.33 1.51 1.67 1.83 1.91 1.95 1.98 1.98 2.01 2.01 2.01 1.98 1.87 1.76 1.68 1.69 1.68 1.68 1.64 1.56 1.57 1.52 1.54 1.48 1.48 1.53 1.56 1.53 1.48 1.43 1.38 1.42 1.68 1.84 1.91 2.05 1.96 1.87 1.91 1.94 2.06 2.07 2.10 2.22 2.15 2.19 2.27 2.42 2.51 2.56 2.61 2.89 3.03 3.11 3.37 4.23 4.31 4.13 3.90 3.27 3.13 3.01 -9999.00 -9999.00 -9999.00 -9999.00 -9999.00 -9999.00 -9999.00 -9999.00 -9999.00 -9999.00 -9999.00 -9999.00 -9999.00 -9999.00 -9999.00 -9999.00 -9999.00 -9999.00 -9999.00 -9999.00 -9999.00 -9999.00 -9999.00 -9999.00 -9999.00 -9999.00 -9999.00 -9999.00 -9999.00 -9999.00 -9999.00 -9999.00 -9999.00 -9999.00 -9999.00 -9999.00 -9999.00 -9999.00 -9999.00 -9999.00 -9999.00 -9999.00 -9999.00 -9999.00 -9999.00 -9999.00 -9999.00 -9999.00 -9999.00 -9999.00 -9999.00 -9999.00 -9999.00 -9999.00 -9999.00 -9999.00 -9999.00 -9999.00 -9999.00 -9999.00 -9999.00 -9999.00 -9999.00 -9999.00 -9999.00 -9999.00 -9999.00 -9999.00 -9999.00 -9999.00 -9999.00 -9999.00 -9999.00 -9999.00 -9999.00 -9999.00 -9999.00 -9999.00 -9999.00 -9999.00 -9999.00 -9999.00 -9999.00 -9999.00 -9999.00 -9999.00 -9999.00 -9999.00 -9999.00 -9999.00 -9999.00 -9999.00 -9999.00 -9999.00 -9999.00 -9999.00 -9999.00 -9999.00 -9999.00 -9999.00 -9999.00 -9999.00 -9999.00 -9999.00 -9999.00 -9999.00 -9999.00 -9999.00 -9999.00 -9999.00 -9999.00 -9999.00 -9999.00 -9999.00 -9999.00 -9999.00 -9999.00 -9999.00 -9999.00 -9999.00 -9999.00 -9999.00 -9999.00 -9999.00 -9999.00 -9999.00 -9999.00 -9999.00 -9999.00 -9999.00 -9999.00 -9999.00 -9999.00 -9999.00 -9999.00 -9999.00 -9999.00 -9999.00 -9999.00 -9999.00 -9999.00 -9999.00 -9999.00 -9999.00 -9999.00 -9999.00 -9999.00 -9999.00 -9999.00 -9999.00 -9999.00 -9999.00 -9999.00 -9999.00 -9999.00 -9999.00 -9999.00 -9999.00 -9999.00 -9999.00 -9999.00 -9999.00 -9999.00 -9999.00 -9999.00 -9999.00 -9999.00 -9999.00 -9999.00 -9999.00 -9999.00 -9999.00 -9999.00 -9999.00 -9999.00 -9999.00 -9999.00 -9999.00 -9999.00 -9999.00 -9999.00 -9999.00 2.65 2.90 3.08 3.35 2.98 2.56 2.17 1.69 1.40 1.16 0.94 0.80 0.77 0.76 0.70 0.63 0.53 0.56 0.49 0.63 0.70 0.75 0.64 0.50 0.49 0.24 0.16 0.03 -0.03 -0.08 -0.17 -0.06 -0.15 -0.23 -0.24 -0.25 -0.25 -0.23 -0.25 -0.29 -0.31 -0.36 -0.39 -0.42 -0.50 -0.54 -0.58 -0.68 -0.73 -0.78 -0.84 -0.91 -0.91 -0.98 -1.01 -1.04 -1.26 -1.32 -1.28 -1.32 -1.34 -1.37 -1.41 -1.48 -1.55 -1.57 -1.71 -1.79 -1.91 -2.02 -2.13 -2.21 -2.35 -2.37 -2.45 -2.52 -2.60 -2.70 -2.79 -2.89 -2.96 -3.05 -3.12 -3.20 -3.32 -3.31 -3.41 -3.49
1.36 1.43 1.43 1.40 1.35 1.33 1.33 1.10 1.11 1.27 1.25 1.32 1.37 1.39 1.39 1.38 1.34 1.09 0.65 0.82 0.84 0.86 0.88 0.92 0.98 0.95 0.93 0.94 0.95 0.95 0.97 1.01 1.07 1.10 1.12 1.19 1.24 1.29 1.31 1.33 1.50 1.67 1.85 1.86 1.88 1.91 1.96 1.97 1.93 1.95 2.00 1.85 1.79 1.71 1.73 1.68 1.62 1.57 1.62 1.63 1.72 1.90 1.79 1.80 1.90 1.81 1.66 1.58 1.62 1.65 1.69 1.65 1.95 2.14 2.14 2.13 2.03 2.05 2.14 2.20 2.28 2.27 2.27 2.13 2.34 2.38 2.44 2.46 2.59 2.82 3.17 3.61 3.79 4.10 4.20 4.31 4.07 3.84 3.50 2.98 -9999.00 -9999.00 -9999.00 -9999.00 -9999.00 -9999.00 -9999.00 -9999.00 -9999.00 -9999.00 -9999.00 -9999.00 -9999.00 -9999.00 -9999.00 -9999.00 -9999.00 -9999.00 -9999.00 -9999.00 -9999.00 -9999.00 -9999.00 -9999.00 -9999.00 -9999.00 -9999.00 -9999.00 -9999.00 -9999.00 -9999.00 -9999.00 -9999.00 -9999.00 -9999.00 -9999.00 -9999.00 -9999.00 -9999.00 -9999.00 -9999.00 -9999.00 -9999.00 -9999.00 -9999.00 -9999.00 -9999.00 -9999.00 -9999.00 -9999.00 -9999.00 -9999.00 -9999.00 -9999.00 -9999.00 -9999.00 -9999.00 -9999.00 -9999.00 -9999.00 -9999.00 -9999.00 -9999.00 -9999.00 -9999.00 -9999.00 -9999.00 -9999.00 -9999.00 -9999.00 -9999.00 -9999.00 -9999.00 -9999.00 -9999.00 -9999.00 -9999.00 -9999.00 -9999.00 -9999.00 -9999.00 -9999.00 -9999.00 -9999.00 -9999.00 -9999.00 -9999.00 -9999.00 -9999.00 -9999.00 -9999.00 -9999.00 -9999.00 -9999.00 -9999.00 -9999.00 -9999.00 -9999.00 -9999.00 -9999.00 -9999.00 -9999.00 -9999.00 -9999.00 -9999.00 -9999.00 -9999.00 -9999.00 -9999.00 -9999.00 -9999.00 -9999.00 -9999.00 -9999.00 -9999.00 -9999.00 -9999.00 -9999.00 -9999.00 -9999.00 -9999.00 -9999.00 -9999.00 -9999.00 -9999.00 -9999.00 -9999.00 -9999.00 -9999.00 -9999.00 -9999.00 -9999.00 -9999.00 -9999.00 -9999.00 -9999.00 -9999.00 -9999.00 -9999.00 -9999.00 -9999.00 -9999.00 -9999.00 -9999.00 -9999.00 -9999.00 -9999.00 -9999.00 -9999.00 -9999.00 -9999.00 -9999.00 -9999.00 -9999.00 -9999.00 -9999.00 -9999.00 -9999.00 -9999.00 -9999.00 -9999.00 -9999.00 -9999.00 -9999.00 -9999.00 -9999.00 -9999.00 -9999.00 -9999.00 -9999.00 -9999.00 -9999.00 -9999.00 -9999.00 -9999.00 -9999.00 -9999.00 -9999.00 -9999.00 -9999.00 -9999.00 -9999.00 -9999.00 -9999.00 -9999.00 2.68 2.94 3.22 3.09 3.14 3.01 2.78 2.13 1.76 1.47 1.30 1.14 0.98 0.79 0.74 0.70 0.61 0.62 0.68 0.65 0.73 0.62 0.53 0.67 0.57 0.40 0.29 0.04 -0.08 -0.06 0.02 -0.01 -0.04 -0.12 -0.15 -0.16 -0.17 -0.10 -0.17 -0.12 -0.18 -0.22 -0.31 -0.33 -0.40 -0.50 -0.60 -0.62 -0.65 -0.69 -0.77 -0.80 -0.81 -0.90 -0.87 -0.84 -1.02 -1.23 -1.27 -1.28 -1.30 -1.34 -1.33 -1.37 -1.46 -1.55 -1.65 -1.76 -1.85 -1.93 -2.07 -2.17 -2.26 -2.34 -2.38 -2.46 -2.54 -2.64 -2.76 -2.84 -2.94 -3.01 -3.08 -3.14 -3.21 -3.28 -3.34
1.36 1.40 1.36 1.31 1.26 1.20 1.32 1.56 1.84 1.79 1.71 1.80 1.83 1.77 1.67 1.64 1.58 0.32 0.68 0.76 0.80 0.85 0.89 0.91 0.93 0.93 0.96 0.95 0.96 0.96 1.01 1.09 1.12 1.16 1.18 1.20 1.27 1.32 1.32 1.51 1.66 1.80 1.86 1.84 1.86 1.89 1.95 1.87 1.89 1.93 1.95 1.81 2.09 2.15 1.93 2.03 1.89 1.85 1.92 2.03 2.10 2.13 2.00 2.03 2.13 2.18 2.03 1.97 1.99 2.02 2.07 2.12 2.15 2.30 2.38 2.34 2.27 2.26 2.37 2.46 2.48 2.53 2.49 2.46 2.53 2.59 2.60 2.76 2.97 3.26 3.68 4.20 4.31 4.07 3.98 4.05 3.67 3.01 -9999.00 -9999.00 -9999.00 -9999.00 -9999.00 -9999.00 -9999.00 -9999.00 -9999.00 -9999.00 -9999.00 -9999.00 -9999.00 -9999.00 -9999.00 -9999.00 -9999.00 -9999.00 -9999.00 -9999.00 -9999.00 -9999.00 -9999.00 -9999.00 -9999.00 -9999.00 -9999.00 -9999.00 -9999.00 -9999.00 -9999.00 -9999.00 -9999.00 -9999.00 -9999.00 -9999.00 -9999.00 -9999.00 -9999.00 -9999.00 -9999.00 -9999.00 -9999.00 -9999.00 -9999.00 -9999.00 -9999.00 -9999.00 -9999.00 -9999.00 -9999.00 -9999.00 -9999.00 -9999.00 -9999.00 -9999.00 -9999.00 -9999.00 -9999.00 -9999.00 -9999.00 -9999.00 -9999.00 -9999.00 -9999.00 -9999.00 -9999.00 -9999.00 -9999.00 -9999.00 -9999.00 -9999.00 -9999.00 -9999.00 -9999.00 -9999.00 -9999.00 -9999.00 -9999.00 -9999.00 -9999.00 -9999.00 -9999.00 -9999.00 -9999.00 -9999.00 -9999.00 -9999.00 -9999.00 -9999.00 -9999.00 -9999.00 -9999.00 -9999.00 -9999.00 -9999.00 -9999.00 -9999.00 -9999.00 -9999.00 -9999.00 -9999.00 -9999.00 -9999.00 -9999.00 -9999.00 -9999.00 -9999.00 -9999.00 -9999.00 -9999.00 -9999.00 -9999.00 -9999.00 -9999.00 -9999.00 -9999.00 -9999.00 -9999.00 -9999.00 -9999.00 -9999.00 -9999.00 -9999.00 -9999.00 -9999.00 -9999.00 -9999.00 -9999.00 -9999.00 -9999.00 -9999.00 -9999.00 -9999.00 -9999.00 -9999.00 -9999.00 -9999.00 -9999.00 -9999.00 -9999.00 -9999.00 -9999.00 -9999.00 -9999.00 -9999.00 -9999.00 -9999.00 -9999.00 -9999.00 -9999.00 -9999.00 -9999.00 -9999.00 -9999.00 -9999.00 -9999.00 -9999.00 -9999.00 -9999.00 -9999.00 -9999.00 -9999.00 -9999.00 -9999.00 -9999.00 -9999.00 -9999.00 -9999.00 -9999.00 -9999.00 -9999.00 -9999.00 -9999.00 -9999.00 -9999.00 -9999.00 -9999.00 -9999.00 -9999.00 -9999.00 -9999.00 -9999.00 -9999.00 -9999.00 -9999.00 -9999.00 -9999.00 2.80 3.05 3.26 3.14 3.06 3.18 3.14 2.56 2.14 1.92 1.73 1.60 1.37 1.22 1.11 0.94 0.82 0.72 0.68 0.72 0.59 0.49 0.76 0.69 0.57 0.55 0.33 0.11 0.17 0.19 0.11 0.01 -0.01 -0.03 -0.07 -0.06 -0.01 -0.09 -0.06 0.00 -0.05 -0.21 -0.22 -0.28 -0.35 -0.45 -0.60 -0.62 -0.64 -0.64 -0.66 -0.73 -0.76 -0.84 -0.78 -0.81 -0.97 -1.10 -1.19 -1.25 -1.26 -1.30 -1.34 -1.31 -1.39 -1.50 -1.57 -1.72 -1.79 -1.90 -2.02 -2.12 -2.18 -2.28 -2.33 -2.38 -2.50 -2.59 -2.72 -2.82 -2.89 -2.99 -3.04 -3.07 -3.15 -3.24
1.33 1.31 1.20 1.20 1.18 1.66 1.94 2.11 2.22 2.26 2.18 2.24 2.16 2.05 1.97 1.88 1.71 0.25 0.67 0.71 0.74 0.79 0.83 0.87 0.89 0.93 0.97 1.02 0.98 0.99 1.09 1.17 1.20 1.22 1.24 1.25 1.27 1.35 1.48 1.65 1.79 1.80 1.83 1.83 1.85 1.93 2.02 2.04 2.14 2.24 2.25 2.34 2.41 2.14 2.40 2.18 2.15 2.12 2.18 2.28 2.39 2.29 2.17 2.26 2.40 2.39 2.45 2.30 2.36 2.40 2.45 2.45 2.39 2.43 2.58 2.55 2.59 2.62 2.63 2.76 2.77 2.83 2.79 3.01 3.29 3.09 3.25 3.41 3.57 3.76 4.06 3.98 3.82 3.67 3.51 3.09 -9999.00 -9999.00 -9999.00 -9999.00 -9999.00 -9999.00 -9999.00 -9999.00 -9999.00 -9999.00 -9999.00 -9999.00 -9999.00 -9999.00 -9999.00 -9999.00 -9999.00 -9999.00 -9999.00 -9999.00 -9999.00 -9999.00 -9999.00 -9999.00 -9999.00 -9999.00 -9999.00 -9999.00 -9999.00 -9999.00 -9999.00 -9999.00 -9999.00 -9999.00 -9999.00 -9999.00 -9999.00 -9999.00 -9999.00 -9999.00 -9999.00 -9999.00 -9999.00 -9999.00 -9999.00 -9999.00 -9999.00 -9999.00 -9999.00 -9999.00 -9999.00 -9999.00 -9999.00 -9999.00 -9999.00 -9999.00 -9999.00 -9999.00 -9999.00 -9999.00 -9999.00 -9999.00 -9999.00 -9999.00 -9999.00 -9999.00 -9999.00 -9999.00 -9999.00 -9999.00 -9999.00 -9999.00 -9999.00 -9999.00 -9999.00 -9999.00 -9999.00 -9999.00 -9999.00 -9999.00 -9999.00 -9999.00 -9999.00 -9999.00 -9999.00 -9999.00 -9999.00 -9999.00 -9999.00 -9999.00 -9999.00 -9999.00 -9999.00 -9999.00 -9999.00 -9999.00 -9999.00 -9999.00 -9999.00 -9999.00 -9999.00 -9999.00 -9999.00 -9999.00 -9999.00 -9999.00 -9999.00 -9999.00 -9999.00 -9999.00 -9999.00 -9999.00 -9999.00 -9999.00 -9999.00 -9999.00 -9999.00 -9999.00 -9999.00 -9999.00 -9999.00 -9999.00 -9999.00 -9999.00 -9999.00 -9999.00 -9999.00 -9999.00 -9999.00 -9999.00 -9999.00 -9999.00 -9999.00 -9999.00 -9999.00 -9999.00 -9999.00 -9999.00 -9999.00 -9999.00 -9999.00 -9999.00 -9999.00 -9999.00 -9999.00 -9999.00 -9999.00 -9999.00 -9999.00 -9999.00 -9999.00 -9999.00 -9999.00 -9999.00 -9999.00 -9999.00 -9999.00 -9999.00 -9999.00 -9999.00 -9999.00 -9999.00 -9999.00 -9999.00 -9999.00 -9999.00 -9999.00 -9999.00 -9999.00 -9999.00 -9999.00 -9999.00 -9999.00 -9999.00 -9999.00 -9999.00 -9999.00 -9999.00 -9999.00 -9999.00 -9999.00 -9999.00 -9999.00 -9999.00 -9999.00 -9999.00 -9999.00 -9999.00 -9999.00 -9999.00 -9999.00 2.47 2.97 2.94 3.03 3.04 2.90 3.05 3.08 2.93 2.69 2.34 2.08 1.85 1.71 1.54 1.42 1.27 1.10 0.94 0.93 0.76 0.77 0.82 0.70 0.71 0.53 0.46 0.39 0.35 0.32 0.20 0.08 0.02 0.04 0.02 0.06 0.03 0.01 0.03 0.02 -0.11 -0.12 -0.17 -0.23 -0.30 -0.36 -0.45 -0.50 -0.55 -0.59 -0.62 -0.62 -0.70 -0.75 -0.76 -0.80 -0.87 -0.98 -1.11 -1.19 -1.19 -1.21 -1.28 -1.31 -1.32 -1.41 -1.53 -1.68 -1.75 -1.88 -1.97 -2.05 -2.13 -2.21 -2.29 -2.34 -2.43 -2.56 -2.65 -2.80 -2.88 -2.93 -3.00 -3.03 -3.07
1.25 1.12 1.16 1.27 1.72 2.08 2.31 2.44 2.44 2.40 2.35 2.23 2.17 2.08 2.02 1.97 1.52 0.98 0.61 0.68 0.73 0.78 0.84 0.89 0.94 1.02 1.05 1.03 1.03 1.04 1.11 1.18 1.26 1.27 1.29 1.31 1.33 1.38 1.52 1.69 1.82 1.79 1.81 1.94 2.03 2.11 2.22 2.37 2.31 2.43 2.50 2.66 2.58 2.64 2.59 2.44 2.42 2.40 2.43 2.54 2.63 2.48 2.51 2.62 2.73 2.63 2.58 2.67 2.73 2.78 2.82 2.76 2.79 2.82 2.95 2.72 2.85 3.02 3.22 3.11 3.09 3.15 3.15 3.36 3.63 3.59 3.65 3.78 4.00 3.86 3.64 3.49 3.33 3.17 -9999.00 -9999.00 -9999.00 -9999.00 -9999.00 -9999.00 -9999.00 -9999.00 -9999.00 -9999.00 -9999.00 -9999.00 -9999.00 -9999.00 -9999.00 -9999.00 -9999.00 -9999.00 -9999.00 -9999.00 -9999.00 -9999.00 -9999.00 -9999.00 -9999.00 -9999.00 -9999.00 -9999.00 -9999.00 -9999.00 -9999.00 -9999.00 -9999.00 -9999.00 -9999.00 -9999.00 -9999.00 -9999.00 -9999.00 -9999.00 -9999.00 -9999.00 -9999.00 -9999.00 -9999.00 -9999.00 -9999.00 -9999.00 -9999.00 -9999.00 -9999.00 -9999.00 -9999.00 -9999.00 -9999.00 -9999.00 -9999.00 -9999.00 -9999.00 -9999.00 -9999.00 -9999.00 -9999.00 -9999.00 -9999.00 -9999.00 -9999.00 -9999.00 -9999.00 -9999.00 -9999.00 -9999.00 -9999.00 -9999.00 -9999.00 -9999.00 -9999.00 -9999.00 -9999.00 -9999.00 -9999.00 -9999.00 -9999.00 -9999.00 -9999.00 -9999.00 -9999.00 -9999.00 -9999.00 -9999.00 -9999.00 -9999.00 -9999.00 -9999.00 -9999.00 -9999.00 -9999.00 -9999.00 -9999.00 -9999.00 -9999.00 -9999.00 -9999.00 -9999.00 -9999.00 -9999.00 -9999.00 -9999.00 -9999.00 -9999.00 -9999.00 -9999.00 -9999.00 -9999.00 -9999.00 -9999.00 -9999.00 -9999.00 -9999.00 -9999.00 -9999.00 -9999.00 -9999.00 -9999.00 -9999.00 -9999.00 -9999.00 -9999.00 -9999.00 -9999.00 -9999.00 -9999.00 -9999.00 -9999.00 -9999.00 -9999.00 -9999.00 -9999.00 -9999.00 -9999.00 -9999.00 -9999.00 -9999.00 -9999.00 -9999.00 -9999.00 -9999.00 -9999.00 -9999.00 -9999.00 -9999.00 -9999.00 -9999.00 -9999.00 -9999.00 -9999.00 -9999.00 -9999.00 -9999.00 -9999.00 -9999.00 -9999.00 -9999.00 -9999.00 -9999.00 -9999.00 -9999.00 -9999.00 -9999.00 -9999.00 -9999.00 -9999.00 -9999.00 -9999.00 -9999.00 -9999.00 -9999.00 -9999.00 -9999.00 -9999.00 -9999.00 -9999.00 -9999.00 -9999.00 -9999.00 -9999.00 -9999.00 -9999.00 -9999.00 -9999.00 -9999.00 -9999.00 -9999.00 -9999.00 2.73 2.98 3.06 2.91 2.65 2.78 2.94 3.06 3.34 3.24 2.89 2.68 2.59 2.31 2.12 1.93 1.81 1.61 1.56 1.42 1.32 1.19 1.05 0.96 0.75 0.75 0.63 0.53 0.48 0.35 0.15 0.16 0.13 0.09 0.12 0.10 0.09 0.13 0.10 -0.02 -0.05 -0.06 -0.12 -0.24 -0.30 -0.29 -0.32 -0.36 -0.40 -0.52 -0.54 -0.61 -0.64 -0.71 -0.78 -0.78 -0.80 -0.90 -0.99 -1.01 -1.08 -1.14 -1.17 -1.21 -1.32 -1.42 -1.54 -1.64 -1.74 -1.81 -1.90 -1.98 -2.08 -2.15 -2.23 -2.29 -2.37 -2.49 -2.63 -2.71 -2.84 -2.91 -2.97 -3.00
1.12 1.04 1.18 1.70 2.15 2.44 2.55 2.56 2.45 2.34 2.29 2.22 2.16 2.10 2.08 1.80 1.69 1.42 1.04 0.67 0.74 0.79 0.84 0.89 0.94 1.06 1.03 0.99 1.04 1.09 1.18 1.25 1.31 1.34 1.35 1.36 1.36 1.46 1.63 1.71 1.72 1.96 2.03 2.09 2.18 2.23 2.34 2.44 2.47 2.32 2.51 2.71 2.84 2.74 2.76 2.72 2.70 2.68 2.70 2.80 2.78 2.74 3.00 2.99 2.83 2.81 2.98 3.05 3.11 3.15 3.20 3.16 3.16 3.32 3.03 2.87 3.04 3.33 3.49 3.43 3.41 3.48 3.51 3.68 3.89 3.89 3.99 3.84 3.64 3.32 3.17 3.00 -9999.00 -9999.00 -9999.00 -9999.00 -9999.00 -9999.00 -9999.00 -9999.00 -9999.00 -9999.00 -9999.00 -9999.00 -9999.00 -9999.00 -9999.00 -9999.00 -9999.00 -9999.00 -9999.00 -9999.00 -9999.00 -9999.00 -9999.00 -9999.00 -9999.00 -9999.00 -9999.00 -9999.00 -9999.00 -9999.00 -9999.00 -9999.00 -9999.00 -9999.00 -9999.00 -9999.00 -9999.00 -9999.00 -9999.00 -9999.00 -9999.00 -9999.00 -9999.00 -9999.00 -9999.00 -9999.00 -9999.00 -9999.00 -9999.00 -9999.00 -9999.00 -9999.00 -9999.00 -9999.00 -9999.00 -9999.00 -9999.00 -9999.00 -9999.00 -9999.00 -9999.00 -9999.00 -9999.00 -9999.00 -9999.00 -9999.00 -9999.00 -9999.00 -9999.00 -9999.00 -9999.00 -9999.00 -9999.00 -9999.00 -9999.00 -9999.00 -9999.00 -9999.00 -9999.00 -9999.00 -9999.00 -9999.00 -9999.00 -9999.00 -9999.00 -9999.00 -9999.00 -9999.00 -9999.00 -9999.00 -9999.00 -9999.00 -9999.00 -9999.00 -9999.00 -9999.00 -9999.00 -9999.00 -9999.00 -9999.00 -9999.00 -9999.00 -9999.00 -9999.00 -9999.00 -9999.00 -9999.00 -9999.00 -9999.00 -9999.00 -9999.00 -9999.00 -9999.00 -9999.00 -9999.00 -9999.00 -9999.00 -9999.00 -9999.00 -9999.00 -9999.00 -9999.00 -9999.00 -9999.00 -9999.00 -9999.00 -9999.00 -9999.00 -9999.00 -9999.00 -9999.00 -9999.00 -9999.00 -9999.00 -9999.00 -9999.00 -9999.00 -9999.00 -9999.00 -9999.00 -9999.00 -9999.00 -9999.00 -9999.00 -9999.00 -9999.00 -9999.00 -9999.00 -9999.00 -9999.00 -9999.00 -9999.00 -9999.00 -9999.00 -9999.00 -9999.00 -9999.00 -9999.00 -9999.00 -9999.00 -9999.00 -9999.00 -9999.00 -9999.00 -9999.00 -9999.00 -9999.00 -9999.00 -9999.00 -9999.00 -9999.00 -9999.00 -9999.00 -9999.00 -9999.00 -9999.00 -9999.00 -9999.00 -9999.00 -9999.00 -9999.00 -9999.00 -9999.00 -9999.00 -9999.00 -9999.00 -9999.00 -9999.00 -9999.00 -9999.00 -9999.00 -9999.00 -9999.00 -9999.00 -9999.00 -9999.00 -9999.00 -9999.00 3.03 2.80 2.54 2.69 2.83 2.91 3.07 3.04 3.18 3.48 3.45 3.31 3.07 2.85 2.58 2.27 2.17 2.07 1.92 1.78 1.67 1.46 1.31 1.21 1.18 1.12 1.03 0.75 0.57 0.54 0.50 0.43 0.31 0.18 0.15 0.13 0.07 0.12 0.07 -0.01 0.07 -0.06 -0.10 -0.15 -0.19 -0.22 -0.26 -0.29 -0.33 -0.45 -0.57 -0.63 -0.65 -0.75 -0.77 -0.81 -0.87 -0.92 -0.97 -0.97 -1.04 -1.09 -1.18 -1.30 -1.41 -1.54 -1.57 -1.70 -1.75 -1.84 -1.93 -2.02 -2.10 -2.16 -2.25 -2.32 -2.43 -2.56 -2.66 -2.82 -2.87 -2.96
