ncols	375
nrows	32
xllcorner	295595
yllcorner	131770
cellsize	5.00
NODATA_value	-9999.00
-9999.00 -9999.00 -9999.00 -9999.00 -9999.00 -9999.00 -9999.00 -9999.00 -9999.00 -9999.00 -9999.00 -9999.00 -9999.00 -9999.00 -9999.00 -9999.00 -9999.00 -9999.00 -9999.00 -9999.00 -9999.00 -9999.00 -9999.00 -9999.00 -9999.00 -9999.00 -9999.00 -9999.00 -9999.00 -9999.00 -9999.00 -9999.00 -9999.00 -9999.00 -9999.00 -9999.00 -9999.00 -9999.00 -9999.00 -9999.00 -9999.00 -9999.00 -9999.00 -9999.00 -9999.00 -9999.00 -9999.00 -9999.00 -9999.00 -9999.00 -9999.00 -9999.00 -9999.00 -9999.00 -9999.00 -9999.00 -9999.00 -9999.00 -9999.00 -9999.00 -9999.00 -9999.00 -9999.00 -9999.00 -9999.00 -9999.00 -9999.00 -9999.00 -9999.00 -9999.00 -9999.00 -9999.00 -9999.00 -9999.00 -9999.00 -9999.00 -9999.00 -9999.00 -9999.00 -9999.00 -9999.00 -9999.00 -9999.00 -9999.00 -9999.00 -9999.00 -9999.00 -9999.00 -9999.00 -9999.00 -9999.00 -9999.00 -9999.00 -9999.00 -9999.00 -9999.00 -9999.00 -9999.00 -9999.00 -9999.00 -9999.00 -9999.00 -9999.00 -9999.00 -9999.00 -9999.00 -9999.00 -9999.00 -9999.00 -9999.00 -9999.00 -9999.00 -9999.00 -9999.00 -9999.00 -9999.00 -9999.00 -9999.00 -9999.00 -9999.00 -9999.00 -9999.00 -9999.00 -9999.00 -9999.00 -9999.00 -9999.00 -9999.00 -9999.00 -9999.00 -9999.00 -9999.00 -9999.00 -9999.00 -9999.00 -9999.00 -9999.00 -9999.00 -9999.00 -9999.00 -9999.00 -9999.00 -9999.00 -9999.00 -9999.00 -9999.00 -9999.00 -9999.00 -9999.00 -9999.00 -9999.00 -9999.00 -9999.00 -9999.00 -9999.00 -9999.00 -9999.00 -9999.00 -9999.00 -9999.00 -9999.00 -9999.00 -9999.00 -9999.00 -9999.00 -9999.00 -9999.00 -9999.00 -9999.00 -9999.00 -9999.00 -9999.00 -9999.00 -9999.00 -9999.00 -9999.00 -9999.00 -9999.00 -9999.00 -9999.00 -9999.00 -9999.00 -9999.00 -9999.00 -9999.00 -9999.00 -9999.00 -9999.00 -9999.00 -17.95 -17.96 -17.98 -17.96 -17.95 -17.88 -17.81 -17.75 -17.68 -17.60 -17.49 -17.38 -17.27 -17.17 -17.08 -16.95 -16.83 -16.68 -16.55 -16.40 -16.30 -16.20 -16.09 -15.98 -15.90 -15.81 -15.76 -15.67 -15.57 -15.50 -15.46 -15.37 -15.28 -15.24 -15.21 -15.15 -15.07 -14.96 -14.92 -14.86 -14.87 -14.85 -14.82 -14.77 -14.70 -14.63 -14.60 -14.56 -14.52 -14.46 -14.37 -14.33 -14.28 -14.20 -14.18 -14.15 -14.08 -14.11 -14.08 -13.96 -13.81 -13.78 -13.74 -13.72 -13.70 -13.63 -13.57 -13.51 -13.45 -13.42 -13.38 -13.41 -13.43 -13.48 -13.48 -13.47 -13.47 -13.47 -13.46 -13.48 -13.52 -13.49 -13.48 -13.45 -13.45 -13.42 -13.38 -13.35 -13.28 -13.21 -13.17 -13.12 -13.09 -13.02 -12.96 -12.86 -12.87 -12.97 -13.00 -13.03 -13.08 -13.13 -13.19 -13.21 -13.23 -13.22 -13.18 -13.13 -13.05 -12.95 -12.79 -12.66 -12.54 -12.39 -12.23 -12.04 -11.93 -11.88 -11.75 -11.58 -11.46 -11.42 -11.36 -11.37 -11.33 -11.30 -11.27 -11.23 -11.11 -10.99 -10.87 -10.82 -10.69 -10.62 -10.72 -10.77 -10.84 -10.92 -10.97 -11.02 -11.04 -11.05 -11.06 -11.02 -10.95 -10.89 -10.81 -10.74 -10.66 -10.57 -10.50 -10.42 -10.36 -10.29 -10.20 -10.14 -10.05 -9.99 -9.95 -9.90 -9.85 -9.79 -9.74 -9.67 -9.63 -9.64 -9.65 -9.66 -9.69 -9.71 -9.73 -9.73 -9.73 -9.72 -9.71 -9.70 -9.69 -9.68 -9.68 -9.68 -9.68 -9.68 -9.68 -9.68 -9.61 -9.59
-9999.00 -9999.00 -9999.00 -9999.00 -9999.00 -9999.00 -9999.00 -9999.00 -9999.00 -9999.00 -9999.00 -9999.00 -9999.00 -9999.00 -9999.00 -9999.00 -9999.00 -9999.00 -9999.00 -9999.00 -9999.00 -9999.00 -9999.00 -9999.00 -9999.00 -9999.00 -9999.00 -9999.00 -9999.00 -9999.00 -9999.00 -9999.00 -9999.00 -9999.00 -9999.00 -9999.00 -9999.00 -9999.00 -9999.00 -9999.00 -9999.00 -9999.00 -9999.00 -9999.00 -9999.00 -9999.00 -9999.00 -9999.00 -9999.00 -9999.00 -9999.00 -9999.00 -9999.00 -9999.00 -9999.00 -9999.00 -9999.00 -9999.00 -9999.00 -9999.00 -9999.00 -9999.00 -9999.00 -9999.00 -9999.00 -9999.00 -9999.00 -9999.00 -9999.00 -9999.00 -9999.00 -9999.00 -9999.00 -9999.00 -9999.00 -9999.00 -9999.00 -9999.00 -9999.00 -9999.00 -9999.00 -9999.00 -9999.00 -9999.00 -9999.00 -9999.00 -9999.00 -9999.00 -9999.00 -9999.00 -9999.00 -9999.00 -9999.00 -9999.00 -9999.00 -9999.00 -9999.00 -9999.00 -9999.00 -9999.00 -9999.00 -9999.00 -9999.00 -9999.00 -9999.00 -9999.00 -9999.00 -9999.00 -9999.00 -9999.00 -9999.00 -9999.00 -9999.00 -9999.00 -9999.00 -9999.00 -9999.00 -9999.00 -9999.00 -9999.00 -9999.00 -9999.00 -9999.00 -9999.00 -9999.00 -9999.00 -9999.00 -9999.00 -9999.00 -9999.00 -9999.00 -9999.00 -9999.00 -9999.00 -9999.00 -9999.00 -9999.00 -9999.00 -9999.00 -9999.00 -9999.00 -9999.00 -9999.00 -9999.00 -9999.00 -9999.00 -9999.00 -9999.00 -9999.00 -9999.00 -9999.00 -9999.00 -9999.00 -9999.00 -9999.00 -9999.00 -9999.00 -9999.00 -9999.00 -9999.00 -9999.00 -9999.00 -9999.00 -9999.00 -9999.00 -9999.00 -9999.00 -9999.00 -9999.00 -9999.00 -9999.00 -9999.00 -9999.00 -9999.00 -9999.00 -9999.00 -9999.00 -9999.00 -9999.00 -9999.00 -9999.00 -9999.00 -9999.00 -9999.00 -9999.00 -9999.00 -9999.00 -17.97 -17.88 -17.83 -17.86 -17.85 -17.79 -17.76 -17.70 -17.61 -17.53 -17.43 -17.33 -17.24 -17.15 -17.05 -16.93 -16.82 -16.70 -16.59 -16.47 -16.34 -16.21 -16.12 -16.02 -15.94 -15.81 -15.73 -15.69 -15.63 -15.60 -15.51 -15.41 -15.32 -15.23 -15.17 -15.14 -15.05 -14.96 -14.90 -14.84 -14.79 -14.81 -14.76 -14.71 -14.68 -14.71 -14.64 -14.58 -14.52 -14.46 -14.41 -14.36 -14.33 -14.26 -14.20 -14.16 -14.07 -14.06 -14.11 -14.06 -13.93 -13.85 -13.84 -13.79 -13.72 -13.64 -13.59 -13.53 -13.44 -13.34 -13.28 -13.25 -13.22 -13.32 -13.34 -13.32 -13.33 -13.34 -13.33 -13.34 -13.35 -13.39 -13.44 -13.46 -13.44 -13.41 -13.39 -13.32 -13.26 -13.22 -13.21 -13.15 -13.09 -13.02 -12.98 -12.94 -12.96 -12.96 -12.97 -13.00 -13.00 -13.01 -13.04 -13.07 -13.15 -13.18 -13.15 -13.11 -13.09 -13.02 -12.88 -12.76 -12.63 -12.46 -12.32 -12.23 -11.97 -11.93 -11.80 -11.65 -11.52 -11.37 -11.35 -11.36 -11.26 -11.25 -11.23 -11.19 -11.14 -11.09 -11.00 -10.93 -10.83 -10.76 -10.69 -10.67 -10.73 -10.80 -10.87 -10.90 -10.90 -10.93 -10.97 -10.96 -10.99 -10.95 -10.87 -10.79 -10.72 -10.64 -10.56 -10.47 -10.42 -10.35 -10.28 -10.21 -10.14 -10.08 -10.01 -9.96 -9.93 -9.89 -9.84 -9.76 -9.67 -9.59 -9.59 -9.62 -9.67 -9.70 -9.75 -9.79 -9.79 -9.76 -9.73 -9.70 -9.68 -9.65 -9.62 -9.60 -9.59 -9.58 -9.58 -9.54 -9.49 -9.46 -9.47 -9.46
-9999.00 -9999.00 -9999.00 -9999.00 -9999.00 -9999.00 -9999.00 -9999.00 -9999.00 -9999.00 -9999.00 -9999.00 -9999.00 -9999.00 -9999.00 -9999.00 -9999.00 -9999.00 -9999.00 -9999.00 -9999.00 -9999.00 -9999.00 -9999.00 -9999.00 -9999.00 -9999.00 -9999.00 -9999.00 -9999.00 -9999.00 -9999.00 -9999.00 -9999.00 -9999.00 -9999.00 -9999.00 -9999.00 -9999.00 -9999.00 -9999.00 -9999.00 -9999.00 -9999.00 -9999.00 -9999.00 -9999.00 -9999.00 -9999.00 -9999.00 -9999.00 -9999.00 -9999.00 -9999.00 -9999.00 -9999.00 -9999.00 -9999.00 -9999.00 -9999.00 -9999.00 -9999.00 -9999.00 -9999.00 -9999.00 -9999.00 -9999.00 -9999.00 -9999.00 -9999.00 -9999.00 -9999.00 -9999.00 -9999.00 -9999.00 -9999.00 -9999.00 -9999.00 -9999.00 -9999.00 -9999.00 -9999.00 -9999.00 -9999.00 -9999.00 -9999.00 -9999.00 -9999.00 -9999.00 -9999.00 -9999.00 -9999.00 -9999.00 -9999.00 -9999.00 -9999.00 -9999.00 -9999.00 -9999.00 -9999.00 -9999.00 -9999.00 -9999.00 -9999.00 -9999.00 -9999.00 -9999.00 -9999.00 -9999.00 -9999.00 -9999.00 -9999.00 -9999.00 -9999.00 -9999.00 -9999.00 -9999.00 -9999.00 -9999.00 -9999.00 -9999.00 -9999.00 -9999.00 -9999.00 -9999.00 -9999.00 -9999.00 -9999.00 -9999.00 -9999.00 -9999.00 -9999.00 -9999.00 -9999.00 -9999.00 -9999.00 -9999.00 -9999.00 -9999.00 -9999.00 -9999.00 -9999.00 -9999.00 -9999.00 -9999.00 -9999.00 -9999.00 -9999.00 -9999.00 -9999.00 -9999.00 -9999.00 -9999.00 -9999.00 -9999.00 -9999.00 -9999.00 -9999.00 -9999.00 -9999.00 -9999.00 -9999.00 -9999.00 -9999.00 -9999.00 -9999.00 -9999.00 -9999.00 -9999.00 -9999.00 -9999.00 -9999.00 -9999.00 -9999.00 -9999.00 -9999.00 -9999.00 -9999.00 -9999.00 -9999.00 -9999.00 -9999.00 -9999.00 -9999.00 -9999.00 -18.01 -17.92 -17.83 -17.75 -17.73 -17.72 -17.67 -17.62 -17.53 -17.45 -17.35 -17.24 -17.15 -17.08 -17.01 -16.90 -16.79 -16.68 -16.57 -16.46 -16.36 -16.26 -16.12 -16.05 -15.94 -15.84 -15.73 -15.65 -15.62 -15.57 -15.52 -15.45 -15.38 -15.27 -15.17 -15.12 -15.06 -14.98 -14.89 -14.83 -14.76 -14.74 -14.74 -14.67 -14.62 -14.57 -14.58 -14.56 -14.57 -14.49 -14.43 -14.37 -14.34 -14.29 -14.21 -14.17 -14.08 -14.06 -14.02 -14.08 -14.06 -13.99 -13.94 -13.89 -13.80 -13.75 -13.67 -13.58 -13.51 -13.43 -13.31 -13.15 -12.96 -12.93 -13.05 -13.20 -13.22 -13.21 -13.23 -13.23 -13.25 -13.26 -13.28 -13.34 -13.39 -13.39 -13.37 -13.32 -13.26 -13.26 -13.21 -13.17 -13.12 -13.08 -13.04 -13.04 -13.02 -13.01 -12.98 -12.96 -12.92 -12.93 -12.96 -12.97 -12.96 -12.97 -13.03 -13.02 -12.99 -12.96 -12.93 -12.84 -12.68 -12.51 -12.33 -12.22 -12.10 -12.04 -11.89 -11.73 -11.58 -11.40 -11.37 -11.28 -11.22 -11.22 -11.19 -11.16 -11.10 -11.07 -11.04 -11.00 -10.93 -10.86 -10.80 -10.72 -10.74 -10.73 -10.73 -10.79 -10.84 -10.83 -10.81 -10.81 -10.84 -10.87 -10.88 -10.87 -10.78 -10.70 -10.63 -10.58 -10.49 -10.43 -10.36 -10.30 -10.25 -10.20 -10.14 -10.09 -10.01 -9.92 -9.86 -9.82 -9.78 -9.72 -9.68 -9.65 -9.65 -9.66 -9.69 -9.70 -9.70 -9.72 -9.72 -9.68 -9.66 -9.64 -9.61 -9.57 -9.54 -9.51 -9.52 -9.53 -9.51 -9.48 -9.42 -9.37 -9.34 -9.35
-9999.00 -9999.00 -9999.00 -9999.00 -9999.00 -9999.00 -9999.00 -9999.00 -9999.00 -9999.00 -9999.00 -9999.00 -9999.00 -9999.00 -9999.00 -9999.00 -9999.00 -9999.00 -9999.00 -9999.00 -9999.00 -9999.00 -9999.00 -9999.00 -9999.00 -9999.00 -9999.00 -9999.00 -9999.00 -9999.00 -9999.00 -9999.00 -9999.00 -9999.00 -9999.00 -9999.00 -9999.00 -9999.00 -9999.00 -9999.00 -9999.00 -9999.00 -9999.00 -9999.00 -9999.00 -9999.00 -9999.00 -9999.00 -9999.00 -9999.00 -9999.00 -9999.00 -9999.00 -9999.00 -9999.00 -9999.00 -9999.00 -9999.00 -9999.00 -9999.00 -9999.00 -9999.00 -9999.00 -9999.00 -9999.00 -9999.00 -9999.00 -9999.00 -9999.00 -9999.00 -9999.00 -9999.00 -9999.00 -9999.00 -9999.00 -9999.00 -9999.00 -9999.00 -9999.00 -9999.00 -9999.00 -9999.00 -9999.00 -9999.00 -9999.00 -9999.00 -9999.00 -9999.00 -9999.00 -9999.00 -9999.00 -9999.00 -9999.00 -9999.00 -9999.00 -9999.00 -9999.00 -9999.00 -9999.00 -9999.00 -9999.00 -9999.00 -9999.00 -9999.00 -9999.00 -9999.00 -9999.00 -9999.00 -9999.00 -9999.00 -9999.00 -9999.00 -9999.00 -9999.00 -9999.00 -9999.00 -9999.00 -9999.00 -9999.00 -9999.00 -9999.00 -9999.00 -9999.00 -9999.00 -9999.00 -9999.00 -9999.00 -9999.00 -9999.00 -9999.00 -9999.00 -9999.00 -9999.00 -9999.00 -9999.00 -9999.00 -9999.00 -9999.00 -9999.00 -9999.00 -9999.00 -9999.00 -9999.00 -9999.00 -9999.00 -9999.00 -9999.00 -9999.00 -9999.00 -9999.00 -9999.00 -9999.00 -9999.00 -9999.00 -9999.00 -9999.00 -9999.00 -9999.00 -9999.00 -9999.00 -9999.00 -9999.00 -9999.00 -9999.00 -9999.00 -9999.00 -9999.00 -9999.00 -9999.00 -9999.00 -9999.00 -9999.00 -9999.00 -9999.00 -9999.00 -9999.00 -9999.00 -9999.00 -9999.00 -9999.00 -9999.00 -9999.00 -9999.00 -18.07 -17.99 -17.90 -17.79 -17.70 -17.62 -17.59 -17.53 -17.47 -17.38 -17.24 -17.15 -17.07 -16.99 -16.91 -16.81 -16.74 -16.66 -16.54 -16.43 -16.34 -16.24 -16.12 -16.03 -15.95 -15.84 -15.74 -15.66 -15.59 -15.52 -15.45 -15.40 -15.36 -15.31 -15.25 -15.13 -15.06 -14.99 -14.94 -14.89 -14.79 -14.70 -14.70 -14.65 -14.61 -14.55 -14.49 -14.47 -14.44 -14.44 -14.46 -14.41 -14.36 -14.31 -14.24 -14.17 -14.09 -14.07 -14.00 -13.99 -14.00 -13.99 -13.98 -13.95 -13.87 -13.81 -13.76 -13.70 -13.62 -13.52 -13.42 -13.24 -13.04 -12.80 -12.64 -12.79 -12.94 -13.08 -13.17 -13.17 -13.18 -13.18 -13.21 -13.22 -13.25 -13.30 -13.33 -13.31 -13.27 -13.24 -13.19 -13.17 -13.14 -13.11 -13.07 -13.06 -13.06 -13.03 -13.00 -12.96 -12.92 -12.89 -12.87 -12.88 -12.91 -12.90 -12.91 -12.93 -12.88 -12.80 -12.80 -12.77 -12.67 -12.55 -12.40 -12.24 -12.12 -11.98 -11.91 -11.80 -11.66 -11.45 -11.34 -11.25 -11.15 -11.15 -11.15 -11.12 -11.07 -11.03 -11.05 -11.00 -10.94 -10.86 -10.80 -10.70 -10.69 -10.67 -10.73 -10.70 -10.68 -10.66 -10.65 -10.68 -10.73 -10.76 -10.77 -10.76 -10.76 -10.78 -10.72 -10.64 -10.59 -10.54 -10.45 -10.39 -10.31 -10.24 -10.17 -10.10 -10.05 -10.02 -9.97 -9.92 -9.87 -9.83 -9.78 -9.74 -9.68 -9.63 -9.61 -9.61 -9.63 -9.64 -9.64 -9.67 -9.69 -9.67 -9.65 -9.61 -9.61 -9.58 -9.55 -9.53 -9.50 -9.48 -9.44 -9.41 -9.38 -9.37 -9.38 -9.40
-9999.00 -9999.00 -9999.00 -9999.00 -9999.00 -9999.00 -9999.00 -9999.00 -9999.00 -9999.00 -9999.00 -9999.00 -9999.00 -9999.00 -9999.00 -9999.00 -9999.00 -9999.00 -9999.00 -9999.00 -9999.00 -9999.00 -9999.00 -9999.00 -9999.00 -9999.00 -9999.00 -9999.00 -9999.00 -9999.00 -9999.00 -9999.00 -9999.00 -9999.00 -9999.00 -9999.00 -9999.00 -9999.00 -9999.00 -9999.00 -9999.00 -9999.00 -9999.00 -9999.00 -9999.00 -9999.00 -9999.00 -9999.00 -9999.00 -9999.00 -9999.00 -9999.00 -9999.00 -9999.00 -9999.00 -9999.00 -9999.00 -9999.00 -9999.00 -9999.00 -9999.00 -9999.00 -9999.00 -9999.00 -9999.00 -9999.00 -9999.00 -9999.00 -9999.00 -9999.00 -9999.00 -9999.00 -9999.00 -9999.00 -9999.00 -9999.00 -9999.00 -9999.00 -9999.00 -9999.00 -9999.00 -9999.00 -9999.00 -9999.00 -9999.00 -9999.00 -9999.00 -9999.00 -9999.00 -9999.00 -9999.00 -9999.00 -9999.00 -9999.00 -9999.00 -9999.00 -9999.00 -9999.00 -9999.00 -9999.00 -9999.00 -9999.00 -9999.00 -9999.00 -9999.00 -9999.00 -9999.00 -9999.00 -9999.00 -9999.00 -9999.00 -9999.00 -9999.00 -9999.00 -9999.00 -9999.00 -9999.00 -9999.00 -9999.00 -9999.00 -9999.00 -9999.00 -9999.00 -9999.00 -9999.00 -9999.00 -9999.00 -9999.00 -9999.00 -9999.00 -9999.00 -9999.00 -9999.00 -9999.00 -9999.00 -9999.00 -9999.00 -9999.00 -9999.00 -9999.00 -9999.00 -9999.00 -9999.00 -9999.00 -9999.00 -9999.00 -9999.00 -9999.00 -9999.00 -9999.00 -9999.00 -9999.00 -9999.00 -9999.00 -9999.00 -9999.00 -9999.00 -9999.00 -9999.00 -9999.00 -9999.00 -9999.00 -9999.00 -9999.00 -9999.00 -9999.00 -9999.00 -9999.00 -9999.00 -9999.00 -9999.00 -9999.00 -9999.00 -9999.00 -9999.00 -9999.00 -9999.00 -9999.00 -9999.00 -9999.00 -9999.00 -9999.00 -18.13 -18.05 -17.94 -17.84 -17.75 -17.62 -17.49 -17.38 -17.32 -17.25 -17.10 -16.97 -16.86 -16.80 -16.70 -16.63 -16.55 -16.46 -16.39 -16.32 -16.21 -16.09 -16.00 -15.95 -15.83 -15.73 -15.65 -15.57 -15.50 -15.41 -15.33 -15.28 -15.24 -15.18 -15.14 -15.06 -15.00 -14.96 -14.92 -14.86 -14.74 -14.69 -14.64 -14.56 -14.53 -14.46 -14.43 -14.40 -14.34 -14.29 -14.30 -14.33 -14.33 -14.25 -14.15 -14.10 -14.05 -14.01 -13.96 -13.95 -13.94 -13.96 -13.93 -13.88 -13.85 -13.81 -13.76 -13.73 -13.66 -13.52 -13.39 -13.16 -12.95 -12.72 -12.68 -12.72 -12.81 -12.95 -13.02 -13.05 -13.08 -13.10 -13.10 -13.14 -13.16 -13.20 -13.23 -13.23 -13.19 -13.14 -13.07 -13.05 -13.09 -13.09 -13.08 -13.06 -13.03 -13.00 -12.96 -12.89 -12.88 -12.85 -12.85 -12.84 -12.82 -12.81 -12.78 -12.72 -12.64 -12.63 -12.63 -12.58 -12.47 -12.39 -12.29 -12.18 -12.05 -11.93 -11.84 -11.71 -11.60 -11.43 -11.25 -11.09 -11.11 -11.09 -11.05 -11.04 -11.10 -11.05 -11.02 -10.95 -10.89 -10.78 -10.71 -10.65 -10.62 -10.63 -10.60 -10.60 -10.60 -10.48 -10.53 -10.65 -10.66 -10.65 -10.64 -10.65 -10.68 -10.72 -10.74 -10.67 -10.59 -10.48 -10.40 -10.34 -10.25 -10.19 -10.14 -10.12 -10.10 -10.07 -10.01 -9.99 -9.94 -9.89 -9.84 -9.78 -9.72 -9.65 -9.60 -9.60 -9.63 -9.62 -9.61 -9.60 -9.60 -9.58 -9.56 -9.54 -9.52 -9.50 -9.48 -9.46 -9.44 -9.42 -9.40 -9.38 -9.36 -9.36 -9.34 -9.34 -9.36
-9999.00 -9999.00 -9999.00 -9999.00 -9999.00 -9999.00 -9999.00 -9999.00 -9999.00 -9999.00 -9999.00 -9999.00 -9999.00 -9999.00 -9999.00 -9999.00 -9999.00 -9999.00 -9999.00 -9999.00 -9999.00 -9999.00 -9999.00 -9999.00 -9999.00 -9999.00 -9999.00 -9999.00 -9999.00 -9999.00 -9999.00 -9999.00 -9999.00 -9999.00 -9999.00 -9999.00 -9999.00 -9999.00 -9999.00 -9999.00 -9999.00 -9999.00 -9999.00 -9999.00 -9999.00 -9999.00 -9999.00 -9999.00 -9999.00 -9999.00 -9999.00 -9999.00 -9999.00 -9999.00 -9999.00 -9999.00 -9999.00 -9999.00 -9999.00 -9999.00 -9999.00 -9999.00 -9999.00 -9999.00 -9999.00 -9999.00 -9999.00 -9999.00 -9999.00 -9999.00 -9999.00 -9999.00 -9999.00 -9999.00 -9999.00 -9999.00 -9999.00 -9999.00 -9999.00 -9999.00 -9999.00 -9999.00 -9999.00 -9999.00 -9999.00 -9999.00 -9999.00 -9999.00 -9999.00 -9999.00 -9999.00 -9999.00 -9999.00 -9999.00 -9999.00 -9999.00 -9999.00 -9999.00 -9999.00 -9999.00 -9999.00 -9999.00 -9999.00 -9999.00 -9999.00 -9999.00 -9999.00 -9999.00 -9999.00 -9999.00 -9999.00 -9999.00 -9999.00 -9999.00 -9999.00 -9999.00 -9999.00 -9999.00 -9999.00 -9999.00 -9999.00 -9999.00 -9999.00 -9999.00 -9999.00 -9999.00 -9999.00 -9999.00 -9999.00 -9999.00 -9999.00 -9999.00 -9999.00 -9999.00 -9999.00 -9999.00 -9999.00 -9999.00 -9999.00 -9999.00 -9999.00 -9999.00 -9999.00 -9999.00 -9999.00 -9999.00 -9999.00 -9999.00 -9999.00 -9999.00 -9999.00 -9999.00 -9999.00 -9999.00 -9999.00 -9999.00 -9999.00 -9999.00 -9999.00 -9999.00 -9999.00 -9999.00 -9999.00 -9999.00 -9999.00 -9999.00 -9999.00 -9999.00 -9999.00 -9999.00 -9999.00 -9999.00 -9999.00 -9999.00 -9999.00 -9999.00 -9999.00 -9999.00 -9999.00 -9999.00 -18.36 -18.22 -18.10 -18.02 -17.92 -17.78 -17.62 -17.46 -17.30 -17.20 -17.10 -16.99 -16.87 -16.75 -16.61 -16.52 -16.44 -16.35 -16.29 -16.23 -16.18 -16.09 -15.95 -15.91 -15.83 -15.72 -15.62 -15.55 -15.47 -15.38 -15.32 -15.24 -15.19 -15.10 -15.06 -15.03 -14.96 -14.90 -14.84 -14.80 -14.74 -14.69 -14.66 -14.59 -14.54 -14.47 -14.39 -14.37 -14.32 -14.29 -14.24 -14.19 -14.19 -14.20 -14.17 -14.12 -14.06 -14.02 -13.97 -13.96 -13.93 -13.91 -13.92 -13.92 -13.89 -13.84 -13.82 -13.82 -13.74 -13.68 -13.58 -13.41 -13.20 -12.92 -12.65 -12.60 -12.68 -12.77 -12.80 -12.90 -12.92 -12.98 -12.99 -12.99 -13.02 -13.05 -13.06 -13.07 -13.10 -13.08 -13.00 -12.96 -12.98 -13.03 -13.03 -13.02 -12.97 -12.97 -12.91 -12.88 -12.81 -12.80 -12.80 -12.78 -12.73 -12.69 -12.65 -12.61 -12.57 -12.53 -12.48 -12.43 -12.36 -12.33 -12.25 -12.15 -12.05 -11.94 -11.85 -11.77 -11.69 -11.55 -11.41 -11.29 -11.15 -11.03 -11.01 -10.99 -10.97 -10.99 -11.04 -10.99 -10.94 -10.86 -10.77 -10.70 -10.64 -10.52 -10.48 -10.47 -10.46 -10.41 -10.51 -10.53 -10.54 -10.53 -10.53 -10.57 -10.58 -10.57 -10.59 -10.56 -10.57 -10.55 -10.49 -10.40 -10.36 -10.32 -10.25 -10.16 -10.15 -10.13 -10.07 -10.02 -9.99 -9.95 -9.92 -9.86 -9.82 -9.78 -9.74 -9.70 -9.67 -9.63 -9.59 -9.55 -9.51 -9.48 -9.45 -9.43 -9.43 -9.43 -9.43 -9.44 -9.44 -9.44 -9.44 -9.43 -9.42 -9.42 -9.40 -9.40 -9.39 -9.37 -9.37
-9999.00 -9999.00 -9999.00 -9999.00 -9999.00 -9999.00 -9999.00 -9999.00 -9999.00 -9999.00 -9999.00 -9999.00 -9999.00 -9999.00 -9999.00 -9999.00 -9999.00 -9999.00 -9999.00 -9999.00 -9999.00 -9999.00 -9999.00 -9999.00 -9999.00 -9999.00 -9999.00 -9999.00 -9999.00 -9999.00 -9999.00 -9999.00 -9999.00 -9999.00 -9999.00 -9999.00 -9999.00 -9999.00 -9999.00 -9999.00 -9999.00 -9999.00 -9999.00 -9999.00 -9999.00 -9999.00 -9999.00 -9999.00 -9999.00 -9999.00 -9999.00 -9999.00 -9999.00 -9999.00 -9999.00 -9999.00 -9999.00 -9999.00 -9999.00 -9999.00 -9999.00 -9999.00 -9999.00 -9999.00 -9999.00 -9999.00 -9999.00 -9999.00 -9999.00 -9999.00 -9999.00 -9999.00 -9999.00 -9999.00 -9999.00 -9999.00 -9999.00 -9999.00 -9999.00 -9999.00 -9999.00 -9999.00 -9999.00 -9999.00 -9999.00 -9999.00 -9999.00 -9999.00 -9999.00 -9999.00 -9999.00 -9999.00 -9999.00 -9999.00 -9999.00 -9999.00 -9999.00 -9999.00 -9999.00 -9999.00 -9999.00 -9999.00 -9999.00 -9999.00 -9999.00 -9999.00 -9999.00 -9999.00 -9999.00 -9999.00 -9999.00 -9999.00 -9999.00 -9999.00 -9999.00 -9999.00 -9999.00 -9999.00 -9999.00 -9999.00 -9999.00 -9999.00 -9999.00 -9999.00 -9999.00 -9999.00 -9999.00 -9999.00 -9999.00 -9999.00 -9999.00 -9999.00 -9999.00 -9999.00 -9999.00 -9999.00 -9999.00 -9999.00 -9999.00 -9999.00 -9999.00 -9999.00 -9999.00 -9999.00 -9999.00 -9999.00 -9999.00 -9999.00 -9999.00 -9999.00 -9999.00 -9999.00 -9999.00 -9999.00 -9999.00 -9999.00 -9999.00 -9999.00 -9999.00 -9999.00 -9999.00 -9999.00 -9999.00 -9999.00 -9999.00 -9999.00 -9999.00 -9999.00 -9999.00 -9999.00 -9999.00 -9999.00 -9999.00 -9999.00 -9999.00 -9999.00 -9999.00 -9999.00 -18.60 -18.45 -18.29 -18.14 -18.04 -17.92 -17.77 -17.59 -17.42 -17.25 -17.14 -17.00 -16.90 -16.78 -16.65 -16.52 -16.41 -16.26 -16.19 -16.13 -16.08 -16.01 -15.93 -15.84 -15.82 -15.70 -15.60 -15.53 -15.46 -15.38 -15.31 -15.25 -15.20 -15.13 -15.08 -14.97 -14.90 -14.82 -14.75 -14.69 -14.66 -14.63 -14.62 -14.58 -14.55 -14.49 -14.43 -14.38 -14.34 -14.28 -14.28 -14.23 -14.18 -14.15 -14.11 -14.11 -14.09 -14.05 -13.99 -13.96 -13.90 -13.89 -13.87 -13.87 -13.89 -13.87 -13.82 -13.79 -13.79 -13.75 -13.68 -13.61 -13.50 -13.29 -13.06 -12.86 -12.72 -12.71 -12.81 -12.83 -12.85 -12.87 -12.90 -12.88 -12.80 -12.84 -12.87 -12.89 -12.92 -12.95 -12.97 -12.93 -12.91 -12.93 -12.90 -12.89 -12.88 -12.81 -12.79 -12.74 -12.65 -12.64 -12.65 -12.65 -12.60 -12.53 -12.49 -12.47 -12.46 -12.42 -12.38 -12.29 -12.23 -12.16 -12.12 -12.10 -12.06 -11.95 -11.90 -11.82 -11.68 -11.60 -11.49 -11.39 -11.28 -11.18 -11.08 -10.88 -10.87 -10.93 -10.99 -10.99 -10.97 -10.88 -10.85 -10.78 -10.68 -10.57 -10.48 -10.40 -10.34 -10.32 -10.36 -10.42 -10.44 -10.41 -10.43 -10.40 -10.43 -10.46 -10.46 -10.48 -10.46 -10.47 -10.50 -10.48 -10.40 -10.35 -10.28 -10.19 -10.13 -10.09 -10.06 -10.02 -9.99 -9.94 -9.90 -9.85 -9.82 -9.79 -9.74 -9.69 -9.65 -9.65 -9.63 -9.57 -9.52 -9.50 -9.46 -9.44 -9.42 -9.41 -9.41 -9.42 -9.42 -9.43 -9.43 -9.43 -9.44 -9.43 -9.43 -9.42 -9.41 -9.40 -9.39 -9.39 -9.37
-9999.00 -9999.00 -9999.00 -9999.00 -9999.00 -9999.00 -9999.00 -9999.00 -9999.00 -9999.00 -9999.00 -9999.00 -9999.00 -9999.00 -9999.00 -9999.00 -9999.00 -9999.00 -9999.00 -9999.00 -9999.00 -9999.00 -9999.00 -9999.00 -9999.00 -9999.00 -9999.00 -9999.00 -9999.00 -9999.00 -9999.00 -9999.00 -9999.00 -9999.00 -9999.00 -9999.00 -9999.00 -9999.00 -9999.00 -9999.00 -9999.00 -9999.00 -9999.00 -9999.00 -9999.00 -9999.00 -9999.00 -9999.00 -9999.00 -9999.00 -9999.00 -9999.00 -9999.00 -9999.00 -9999.00 -9999.00 -9999.00 -9999.00 -9999.00 -9999.00 -9999.00 -9999.00 -9999.00 -9999.00 -9999.00 -9999.00 -9999.00 -9999.00 -9999.00 -9999.00 -9999.00 -9999.00 -9999.00 -9999.00 -9999.00 -9999.00 -9999.00 -9999.00 -9999.00 -9999.00 -9999.00 -9999.00 -9999.00 -9999.00 -9999.00 -9999.00 -9999.00 -9999.00 -9999.00 -9999.00 -9999.00 -9999.00 -9999.00 -9999.00 -9999.00 -9999.00 -9999.00 -9999.00 -9999.00 -9999.00 -9999.00 -9999.00 -9999.00 -9999.00 -9999.00 -9999.00 -9999.00 -9999.00 -9999.00 -9999.00 -9999.00 -9999.00 -9999.00 -9999.00 -9999.00 -9999.00 -9999.00 -9999.00 -9999.00 -9999.00 -9999.00 -9999.00 -9999.00 -9999.00 -9999.00 -9999.00 -9999.00 -9999.00 -9999.00 -9999.00 -9999.00 -9999.00 -9999.00 -9999.00 -9999.00 -9999.00 -9999.00 -9999.00 -9999.00 -9999.00 -9999.00 -9999.00 -9999.00 -9999.00 -9999.00 -9999.00 -9999.00 -9999.00 -9999.00 -9999.00 -9999.00 -9999.00 -9999.00 -9999.00 -9999.00 -9999.00 -9999.00 -9999.00 -9999.00 -9999.00 -9999.00 -9999.00 -9999.00 -9999.00 -9999.00 -9999.00 -9999.00 -9999.00 -9999.00 -9999.00 -9999.00 -9999.00 -9999.00 -9999.00 -9999.00 -9999.00 -18.71 -18.58 -18.45 -18.32 -18.15 -17.99 -17.83 -17.69 -17.52 -17.38 -17.20 -17.07 -16.92 -16.80 -16.68 -16.56 -16.45 -16.33 -16.22 -16.09 -15.99 -15.93 -15.83 -15.78 -15.70 -15.65 -15.58 -15.50 -15.41 -15.36 -15.30 -15.23 -15.17 -15.15 -15.10 -15.03 -14.94 -14.83 -14.72 -14.67 -14.60 -14.57 -14.53 -14.51 -14.51 -14.49 -14.46 -14.42 -14.37 -14.31 -14.31 -14.27 -14.23 -14.19 -14.17 -14.15 -14.09 -14.06 -14.03 -13.98 -13.94 -13.89 -13.83 -13.80 -13.81 -13.79 -13.78 -13.77 -13.75 -13.72 -13.70 -13.69 -13.63 -13.53 -13.45 -13.31 -13.15 -13.03 -12.95 -12.89 -12.90 -12.87 -12.88 -12.86 -12.82 -12.81 -12.69 -12.63 -12.75 -12.79 -12.84 -12.81 -12.85 -12.82 -12.78 -12.77 -12.77 -12.74 -12.71 -12.67 -12.64 -12.56 -12.51 -12.45 -12.43 -12.36 -12.29 -12.30 -12.31 -12.28 -12.27 -12.21 -12.11 -12.05 -12.00 -11.98 -11.96 -11.89 -11.82 -11.76 -11.73 -11.66 -11.54 -11.43 -11.31 -11.17 -11.11 -11.05 -11.02 -10.99 -10.95 -10.93 -10.91 -10.92 -10.91 -10.80 -10.68 -10.63 -10.57 -10.50 -10.39 -10.31 -10.27 -10.30 -10.33 -10.37 -10.34 -10.34 -10.35 -10.34 -10.31 -10.34 -10.35 -10.37 -10.36 -10.37 -10.37 -10.34 -10.29 -10.22 -10.16 -10.11 -10.04 -9.97 -9.90 -9.86 -9.84 -9.82 -9.82 -9.80 -9.81 -9.78 -9.75 -9.69 -9.65 -9.60 -9.55 -9.53 -9.50 -9.47 -9.43 -9.39 -9.32 -9.30 -9.31 -9.33 -9.35 -9.36 -9.38 -9.39 -9.41 -9.39 -9.38 -9.36 -9.35 -9.33 -9.32 -9.30 -9.28
-9999.00 -9999.00 -9999.00 -9999.00 -9999.00 -9999.00 -9999.00 -9999.00 -9999.00 -9999.00 -9999.00 -9999.00 -9999.00 -9999.00 -9999.00 -9999.00 -9999.00 -9999.00 -9999.00 -9999.00 -9999.00 -9999.00 -9999.00 -9999.00 -9999.00 -9999.00 -9999.00 -9999.00 -9999.00 -9999.00 -9999.00 -9999.00 -9999.00 -9999.00 -9999.00 -9999.00 -9999.00 -9999.00 -9999.00 -9999.00 -9999.00 -9999.00 -9999.00 -9999.00 -9999.00 -9999.00 -9999.00 -9999.00 -9999.00 -9999.00 -9999.00 -9999.00 -9999.00 -9999.00 -9999.00 -9999.00 -9999.00 -9999.00 -9999.00 -9999.00 -9999.00 -9999.00 -9999.00 -9999.00 -9999.00 -9999.00 -9999.00 -9999.00 -9999.00 -9999.00 -9999.00 -9999.00 -9999.00 -9999.00 -9999.00 -9999.00 -9999.00 -9999.00 -9999.00 -9999.00 -9999.00 -9999.00 -9999.00 -9999.00 -9999.00 -9999.00 -9999.00 -9999.00 -9999.00 -9999.00 -9999.00 -9999.00 -9999.00 -9999.00 -9999.00 -9999.00 -9999.00 -9999.00 -9999.00 -9999.00 -9999.00 -9999.00 -9999.00 -9999.00 -9999.00 -9999.00 -9999.00 -9999.00 -9999.00 -9999.00 -9999.00 -9999.00 -9999.00 -9999.00 -9999.00 -9999.00 -9999.00 -9999.00 -9999.00 -9999.00 -9999.00 -9999.00 -9999.00 -9999.00 -9999.00 -9999.00 -9999.00 -9999.00 -9999.00 -9999.00 -9999.00 -9999.00 -9999.00 -9999.00 -9999.00 -9999.00 -9999.00 -9999.00 -9999.00 -9999.00 -9999.00 -9999.00 -9999.00 -9999.00 -9999.00 -9999.00 -9999.00 -9999.00 -9999.00 -9999.00 -9999.00 -9999.00 -9999.00 -9999.00 -9999.00 -9999.00 -9999.00 -9999.00 -9999.00 -9999.00 -9999.00 -9999.00 -9999.00 -9999.00 -9999.00 -9999.00 -9999.00 -9999.00 -9999.00 -9999.00 -9999.00 -9999.00 -9999.00 -9999.00 -18.75 -18.65 -18.53 -18.41 -18.23 -18.12 -17.93 -17.74 -17.59 -17.42 -17.27 -17.13 -17.01 -16.84 -16.69 -16.57 -16.47 -16.36 -16.25 -16.13 -16.01 -15.91 -15.80 -15.71 -15.64 -15.56 -15.51 -15.45 -15.37 -15.31 -15.27 -15.23 -15.15 -15.10 -15.06 -15.03 -15.02 -14.92 -14.84 -14.74 -14.63 -14.57 -14.51 -14.46 -14.49 -14.47 -14.45 -14.43 -14.41 -14.36 -14.30 -14.29 -14.26 -14.24 -14.25 -14.23 -14.21 -14.14 -14.09 -14.02 -13.96 -13.92 -13.88 -13.82 -13.76 -13.71 -13.70 -13.68 -13.69 -13.68 -13.70 -13.67 -13.65 -13.59 -13.53 -13.50 -13.42 -13.35 -13.22 -13.12 -13.05 -12.98 -12.97 -12.92 -12.88 -12.88 -12.79 -12.67 -12.61 -12.56 -12.66 -12.70 -12.73 -12.76 -12.72 -12.67 -12.66 -12.65 -12.63 -12.57 -12.56 -12.51 -12.45 -12.38 -12.32 -12.26 -12.20 -12.16 -12.13 -12.10 -12.09 -12.04 -12.02 -12.00 -11.97 -11.92 -11.86 -11.80 -11.74 -11.71 -11.68 -11.65 -11.59 -11.49 -11.35 -11.21 -11.06 -10.95 -10.96 -10.96 -10.99 -10.98 -10.93 -10.86 -10.83 -10.80 -10.76 -10.73 -10.66 -10.56 -10.46 -10.40 -10.35 -10.30 -10.30 -10.30 -10.25 -10.26 -10.28 -10.20 -10.23 -10.22 -10.22 -10.23 -10.24 -10.21 -10.21 -10.24 -10.23 -10.21 -10.14 -10.09 -10.03 -9.98 -9.91 -9.84 -9.79 -9.79 -9.79 -9.77 -9.75 -9.73 -9.70 -9.66 -9.65 -9.61 -9.59 -9.58 -9.54 -9.55 -9.51 -9.47 -9.44 -9.41 -9.38 -9.34 -9.34 -9.35 -9.35 -9.35 -9.35 -9.35 -9.35 -9.31 -9.28 -9.25 -9.22 -9.19 -9.17 -9.14 -9.10
-9999.00 -9999.00 -9999.00 -9999.00 -9999.00 -9999.00 -9999.00 -9999.00 -9999.00 -9999.00 -9999.00 -9999.00 -9999.00 -9999.00 -9999.00 -9999.00 -9999.00 -9999.00 -9999.00 -9999.00 -9999.00 -9999.00 -9999.00 -9999.00 -9999.00 -9999.00 -9999.00 -9999.00 -9999.00 -9999.00 -9999.00 -9999.00 -9999.00 -9999.00 -9999.00 -9999.00 -9999.00 -9999.00 -9999.00 -9999.00 -9999.00 -9999.00 -9999.00 -9999.00 -9999.00 -9999.00 -9999.00 -9999.00 -9999.00 -9999.00 -9999.00 -9999.00 -9999.00 -9999.00 -9999.00 -9999.00 -9999.00 -9999.00 -9999.00 -9999.00 -9999.00 -9999.00 -9999.00 -9999.00 -9999.00 -9999.00 -9999.00 -9999.00 -9999.00 -9999.00 -9999.00 -9999.00 -9999.00 -9999.00 -9999.00 -9999.00 -9999.00 -9999.00 -9999.00 -9999.00 -9999.00 -9999.00 -9999.00 -9999.00 -9999.00 -9999.00 -9999.00 -9999.00 -9999.00 -9999.00 -9999.00 -9999.00 -9999.00 -9999.00 -9999.00 -9999.00 -9999.00 -9999.00 -9999.00 -9999.00 -9999.00 -9999.00 -9999.00 -9999.00 -9999.00 -9999.00 -9999.00 -9999.00 -9999.00 -9999.00 -9999.00 -9999.00 -9999.00 -9999.00 -9999.00 -9999.00 -9999.00 -9999.00 -9999.00 -9999.00 -9999.00 -9999.00 -9999.00 -9999.00 -9999.00 -9999.00 -9999.00 -9999.00 -9999.00 -9999.00 -9999.00 -9999.00 -9999.00 -9999.00 -9999.00 -9999.00 -9999.00 -9999.00 -9999.00 -9999.00 -9999.00 -9999.00 -9999.00 -9999.00 -9999.00 -9999.00 -9999.00 -9999.00 -9999.00 -9999.00 -9999.00 -9999.00 -9999.00 -9999.00 -9999.00 -9999.00 -9999.00 -9999.00 -9999.00 -9999.00 -9999.00 -9999.00 -9999.00 -9999.00 -9999.00 -9999.00 -9999.00 -9999.00 -9999.00 -9999.00 -9999.00 -9999.00 -18.83 -18.70 -18.56 -18.43 -18.29 -18.10 -17.95 -17.79 -17.62 -17.49 -17.32 -17.15 -16.99 -16.88 -16.73 -16.59 -16.45 -16.36 -16.26 -16.14 -16.04 -15.94 -15.84 -15.72 -15.62 -15.51 -15.43 -15.40 -15.33 -15.24 -15.19 -15.18 -15.14 -15.07 -15.02 -14.97 -14.96 -14.92 -14.90 -14.87 -14.76 -14.67 -14.58 -14.49 -14.47 -14.47 -14.43 -14.40 -14.40 -14.39 -14.35 -14.32 -14.29 -14.23 -14.27 -14.28 -14.30 -14.26 -14.22 -14.14 -14.06 -13.95 -13.85 -13.82 -13.81 -13.73 -13.68 -13.61 -13.61 -13.60 -13.63 -13.63 -13.63 -13.58 -13.51 -13.49 -13.47 -13.41 -13.37 -13.34 -13.24 -13.15 -13.09 -13.04 -13.00 -12.95 -12.88 -12.77 -12.68 -12.62 -12.61 -12.55 -12.56 -12.65 -12.68 -12.65 -12.60 -12.57 -12.55 -12.52 -12.48 -12.44 -12.39 -12.32 -12.25 -12.17 -12.12 -12.05 -12.02 -11.98 -11.96 -11.98 -11.91 -11.87 -11.87 -11.86 -11.78 -11.71 -11.66 -11.60 -11.55 -11.56 -11.53 -11.44 -11.35 -11.28 -11.19 -11.05 -10.89 -10.83 -10.82 -10.86 -10.93 -10.92 -10.86 -10.81 -10.77 -10.73 -10.67 -10.60 -10.53 -10.47 -10.40 -10.36 -10.34 -10.26 -10.22 -10.14 -10.16 -10.12 -10.13 -10.13 -10.12 -10.08 -10.06 -10.14 -10.13 -10.14 -10.12 -10.14 -10.17 -10.18 -10.09 -10.03 -9.94 -9.89 -9.83 -9.80 -9.76 -9.75 -9.73 -9.73 -9.71 -9.68 -9.65 -9.61 -9.58 -9.55 -9.53 -9.52 -9.50 -9.48 -9.46 -9.43 -9.39 -9.34 -9.31 -9.29 -9.28 -9.26 -9.24 -9.22 -9.20 -9.18 -9.15 -9.11 -9.08 -9.04 -9.01 -8.97 -8.94 -8.91 -8.88
-9999.00 -9999.00 -9999.00 -9999.00 -9999.00 -9999.00 -9999.00 -9999.00 -9999.00 -9999.00 -9999.00 -9999.00 -9999.00 -9999.00 -9999.00 -9999.00 -9999.00 -9999.00 -9999.00 -9999.00 -9999.00 -9999.00 -9999.00 -9999.00 -9999.00 -9999.00 -9999.00 -9999.00 -9999.00 -9999.00 -9999.00 -9999.00 -9999.00 -9999.00 -9999.00 -9999.00 -9999.00 -9999.00 -9999.00 -9999.00 -9999.00 -9999.00 -9999.00 -9999.00 -9999.00 -9999.00 -9999.00 -9999.00 -9999.00 -9999.00 -9999.00 -9999.00 -9999.00 -9999.00 -9999.00 -9999.00 -9999.00 -9999.00 -9999.00 -9999.00 -9999.00 -9999.00 -9999.00 -9999.00 -9999.00 -9999.00 -9999.00 -9999.00 -9999.00 -9999.00 -9999.00 -9999.00 -9999.00 -9999.00 -9999.00 -9999.00 -9999.00 -9999.00 -9999.00 -9999.00 -9999.00 -9999.00 -9999.00 -9999.00 -9999.00 -9999.00 -9999.00 -9999.00 -9999.00 -9999.00 -9999.00 -9999.00 -9999.00 -9999.00 -9999.00 -9999.00 -9999.00 -9999.00 -9999.00 -9999.00 -9999.00 -9999.00 -9999.00 -9999.00 -9999.00 -9999.00 -9999.00 -9999.00 -9999.00 -9999.00 -9999.00 -9999.00 -9999.00 -9999.00 -9999.00 -9999.00 -9999.00 -9999.00 -9999.00 -9999.00 -9999.00 -9999.00 -9999.00 -9999.00 -9999.00 -9999.00 -9999.00 -9999.00 -9999.00 -9999.00 -9999.00 -9999.00 -9999.00 -9999.00 -9999.00 -9999.00 -9999.00 -9999.00 -9999.00 -9999.00 -9999.00 -9999.00 -9999.00 -9999.00 -9999.00 -9999.00 -9999.00 -9999.00 -9999.00 -9999.00 -9999.00 -9999.00 -9999.00 -9999.00 -9999.00 -9999.00 -9999.00 -9999.00 -9999.00 -9999.00 -9999.00 -9999.00 -9999.00 -9999.00 -9999.00 -9999.00 -9999.00 -9999.00 -9999.00 -9999.00 -9999.00 -18.70 -18.59 -18.44 -18.29 -18.13 -17.96 -17.81 -17.62 -17.47 -17.32 -17.21 -17.02 -16.85 -16.72 -16.59 -16.47 -16.34 -16.26 -16.17 -16.04 -15.94 -15.86 -15.76 -15.65 -15.54 -15.47 -15.38 -15.31 -15.26 -15.17 -15.08 -15.07 -15.06 -14.99 -14.93 -14.89 -14.85 -14.84 -14.83 -14.80 -14.76 -14.68 -14.57 -14.51 -14.43 -14.43 -14.41 -14.38 -14.38 -14.38 -14.33 -14.28 -14.23 -14.26 -14.28 -14.28 -14.29 -14.30 -14.27 -14.22 -14.15 -14.03 -13.88 -13.76 -13.73 -13.68 -13.59 -13.52 -13.52 -13.55 -13.57 -13.55 -13.53 -13.48 -13.43 -13.43 -13.40 -13.38 -13.37 -13.33 -13.28 -13.23 -13.18 -13.12 -13.05 -12.98 -12.91 -12.83 -12.74 -12.64 -12.60 -12.57 -12.51 -12.49 -12.53 -12.56 -12.51 -12.50 -12.46 -12.40 -12.35 -12.30 -12.25 -12.17 -12.07 -12.01 -11.96 -11.92 -11.89 -11.82 -11.83 -11.81 -11.74 -11.68 -11.69 -11.67 -11.61 -11.58 -11.54 -11.53 -11.51 -11.43 -11.39 -11.36 -11.29 -11.24 -11.15 -11.08 -10.98 -10.79 -10.74 -10.76 -10.78 -10.82 -10.86 -10.77 -10.71 -10.68 -10.62 -10.56 -10.50 -10.46 -10.39 -10.33 -10.26 -10.22 -10.19 -10.12 -10.06 -10.03 -10.07 -10.07 -10.03 -10.05 -10.06 -10.05 -10.07 -10.06 -10.07 -10.06 -10.04 -10.04 -10.02 -9.97 -9.92 -9.86 -9.82 -9.79 -9.80 -9.78 -9.75 -9.74 -9.70 -9.65 -9.61 -9.58 -9.58 -9.57 -9.53 -9.50 -9.49 -9.44 -9.38 -9.35 -9.35 -9.35 -9.33 -9.31 -9.30 -9.25 -9.21 -9.15 -9.09 -9.03 -8.97 -8.92 -8.88 -8.85 -8.81 -8.77 -8.74 -8.70 -8.67 -8.63
-9999.00 -9999.00 -9999.00 -9999.00 -9999.00 -9999.00 -9999.00 -9999.00 -9999.00 -9999.00 -9999.00 -9999.00 -9999.00 -9999.00 -9999.00 -9999.00 -9999.00 -9999.00 -9999.00 -9999.00 -9999.00 -9999.00 -9999.00 -9999.00 -9999.00 -9999.00 -9999.00 -9999.00 -9999.00 -9999.00 -9999.00 -9999.00 -9999.00 -9999.00 -9999.00 -9999.00 -9999.00 -9999.00 -9999.00 -9999.00 -9999.00 -9999.00 -9999.00 -9999.00 -9999.00 -9999.00 -9999.00 -9999.00 -9999.00 -9999.00 -9999.00 -9999.00 -9999.00 -9999.00 -9999.00 -9999.00 -9999.00 -9999.00 -9999.00 -9999.00 -9999.00 -9999.00 -9999.00 -9999.00 -9999.00 -9999.00 -9999.00 -9999.00 -9999.00 -9999.00 -9999.00 -9999.00 -9999.00 -9999.00 -9999.00 -9999.00 -9999.00 -9999.00 -9999.00 -9999.00 -9999.00 -9999.00 -9999.00 -9999.00 -9999.00 -9999.00 -9999.00 -9999.00 -9999.00 -9999.00 -9999.00 -9999.00 -9999.00 -9999.00 -9999.00 -9999.00 -9999.00 -9999.00 -9999.00 -9999.00 -9999.00 -9999.00 -9999.00 -9999.00 -9999.00 -9999.00 -9999.00 -9999.00 -9999.00 -9999.00 -9999.00 -9999.00 -9999.00 -9999.00 -9999.00 -9999.00 -9999.00 -9999.00 -9999.00 -9999.00 -9999.00 -9999.00 -9999.00 -9999.00 -9999.00 -9999.00 -9999.00 -9999.00 -9999.00 -9999.00 -9999.00 -9999.00 -9999.00 -9999.00 -9999.00 -9999.00 -9999.00 -9999.00 -9999.00 -9999.00 -9999.00 -9999.00 -9999.00 -9999.00 -9999.00 -9999.00 -9999.00 -9999.00 -9999.00 -9999.00 -9999.00 -9999.00 -9999.00 -9999.00 -9999.00 -9999.00 -9999.00 -9999.00 -9999.00 -9999.00 -9999.00 -9999.00 -9999.00 -9999.00 -9999.00 -9999.00 -9999.00 -9999.00 -9999.00 -18.65 -18.54 -18.43 -18.30 -18.15 -17.98 -17.83 -17.63 -17.47 -17.29 -17.16 -17.01 -16.86 -16.71 -16.59 -16.47 -16.35 -16.24 -16.16 -16.08 -15.94 -15.85 -15.73 -15.65 -15.57 -15.49 -15.41 -15.35 -15.27 -15.20 -15.15 -15.06 -15.01 -14.99 -14.90 -14.87 -14.84 -14.77 -14.77 -14.77 -14.74 -14.68 -14.62 -14.58 -14.51 -14.46 -14.46 -14.43 -14.40 -14.38 -14.36 -14.29 -14.24 -14.25 -14.26 -14.25 -14.23 -14.21 -14.22 -14.29 -14.35 -14.26 -14.12 -13.99 -13.86 -13.72 -13.63 -13.57 -13.49 -13.42 -13.46 -13.47 -13.46 -13.43 -13.41 -13.39 -13.38 -13.34 -13.36 -13.33 -13.31 -13.32 -13.27 -13.22 -13.18 -13.10 -13.02 -12.98 -12.92 -12.81 -12.71 -12.62 -12.58 -12.54 -12.47 -12.40 -12.40 -12.40 -12.38 -12.30 -12.24 -12.17 -12.13 -12.08 -11.97 -11.92 -11.88 -11.84 -11.81 -11.76 -11.70 -11.68 -11.71 -11.63 -11.60 -11.57 -11.58 -11.56 -11.54 -11.53 -11.46 -11.40 -11.38 -11.31 -11.29 -11.25 -11.24 -11.21 -11.07 -10.95 -10.82 -10.76 -10.70 -10.68 -10.72 -10.74 -10.73 -10.68 -10.64 -10.55 -10.55 -10.47 -10.40 -10.31 -10.29 -10.25 -10.21 -10.15 -10.11 -10.04 -10.06 -10.02 -10.02 -10.00 -9.99 -9.98 -9.98 -9.97 -9.94 -9.94 -9.95 -9.93 -9.92 -9.91 -9.89 -9.84 -9.83 -9.82 -9.80 -9.78 -9.76 -9.74 -9.74 -9.69 -9.65 -9.62 -9.57 -9.53 -9.51 -9.49 -9.48 -9.45 -9.41 -9.37 -9.33 -9.31 -9.30 -9.30 -9.29 -9.29 -9.28 -9.21 -9.13 -9.05 -8.96 -8.88 -8.77 -8.68 -8.64 -8.60 -8.56 -8.52 -8.48 -8.43 -8.39 -8.36
-9999.00 -9999.00 -9999.00 -9999.00 -9999.00 -9999.00 -9999.00 -9999.00 -9999.00 -9999.00 -9999.00 -9999.00 -9999.00 -9999.00 -9999.00 -9999.00 -9999.00 -9999.00 -9999.00 -9999.00 -9999.00 -9999.00 -9999.00 -9999.00 -9999.00 -9999.00 -9999.00 -9999.00 -9999.00 -9999.00 -9999.00 -9999.00 -9999.00 -9999.00 -9999.00 -9999.00 -9999.00 -9999.00 -9999.00 -9999.00 -9999.00 -9999.00 -9999.00 -9999.00 -9999.00 -9999.00 -9999.00 -9999.00 -9999.00 -9999.00 -9999.00 -9999.00 -9999.00 -9999.00 -9999.00 -9999.00 -9999.00 -9999.00 -9999.00 -9999.00 -9999.00 -9999.00 -9999.00 -9999.00 -9999.00 -9999.00 -9999.00 -9999.00 -9999.00 -9999.00 -9999.00 -9999.00 -9999.00 -9999.00 -9999.00 -9999.00 -9999.00 -9999.00 -9999.00 -9999.00 -9999.00 -9999.00 -9999.00 -9999.00 -9999.00 -9999.00 -9999.00 -9999.00 -9999.00 -9999.00 -9999.00 -9999.00 -9999.00 -9999.00 -9999.00 -9999.00 -9999.00 -9999.00 -9999.00 -9999.00 -9999.00 -9999.00 -9999.00 -9999.00 -9999.00 -9999.00 -9999.00 -9999.00 -9999.00 -9999.00 -9999.00 -9999.00 -9999.00 -9999.00 -9999.00 -9999.00 -9999.00 -9999.00 -9999.00 -9999.00 -9999.00 -9999.00 -9999.00 -9999.00 -9999.00 -9999.00 -9999.00 -9999.00 -9999.00 -9999.00 -9999.00 -9999.00 -9999.00 -9999.00 -9999.00 -9999.00 -9999.00 -9999.00 -9999.00 -9999.00 -9999.00 -9999.00 -9999.00 -9999.00 -9999.00 -9999.00 -9999.00 -9999.00 -9999.00 -9999.00 -9999.00 -9999.00 -9999.00 -9999.00 -9999.00 -9999.00 -9999.00 -9999.00 -9999.00 -9999.00 -9999.00 -9999.00 -9999.00 -9999.00 -9999.00 -9999.00 -9999.00 -18.57 -18.47 -18.37 -18.26 -18.11 -17.98 -17.85 -17.64 -17.48 -17.30 -17.16 -16.99 -16.83 -16.70 -16.57 -16.46 -16.35 -16.23 -16.14 -16.04 -15.95 -15.84 -15.72 -15.65 -15.57 -15.48 -15.41 -15.37 -15.28 -15.19 -15.15 -15.12 -15.06 -14.98 -14.89 -14.85 -14.82 -14.78 -14.72 -14.71 -14.72 -14.66 -14.62 -14.58 -14.56 -14.50 -14.47 -14.42 -14.40 -14.39 -14.38 -14.33 -14.25 -14.23 -14.24 -14.22 -14.18 -14.13 -14.16 -14.20 -14.21 -14.25 -14.27 -14.22 -14.07 -13.89 -13.76 -13.63 -13.58 -13.49 -13.43 -13.40 -13.41 -13.41 -13.41 -13.38 -13.35 -13.32 -13.33 -13.33 -13.30 -13.30 -13.29 -13.26 -13.22 -13.19 -13.14 -13.09 -13.02 -12.95 -12.87 -12.76 -12.69 -12.63 -12.54 -12.48 -12.41 -12.34 -12.29 -12.23 -12.13 -12.08 -12.06 -12.00 -11.90 -11.85 -11.81 -11.79 -11.75 -11.70 -11.64 -11.60 -11.57 -11.56 -11.59 -11.56 -11.55 -11.53 -11.45 -11.41 -11.39 -11.40 -11.38 -11.33 -11.28 -11.22 -11.17 -11.12 -11.08 -11.08 -10.94 -10.84 -10.77 -10.69 -10.67 -10.63 -10.55 -10.57 -10.61 -10.62 -10.56 -10.50 -10.43 -10.38 -10.34 -10.27 -10.25 -10.20 -10.16 -10.15 -10.11 -10.06 -10.00 -9.94 -9.90 -9.91 -9.88 -9.84 -9.86 -9.88 -9.84 -9.86 -9.85 -9.84 -9.84 -9.82 -9.83 -9.80 -9.72 -9.67 -9.69 -9.69 -9.68 -9.67 -9.60 -9.51 -9.51 -9.51 -9.50 -9.47 -9.46 -9.46 -9.42 -9.36 -9.33 -9.31 -9.28 -9.26 -9.26 -9.25 -9.25 -9.25 -9.25 -9.18 -9.08 -8.96 -8.84 -8.73 -8.61 -8.49 -8.45 -8.42 -8.38 -8.34 -8.30 -8.26 -8.22 -8.17
-9999.00 -9999.00 -9999.00 -9999.00 -9999.00 -9999.00 -9999.00 -9999.00 -9999.00 -9999.00 -9999.00 -9999.00 -9999.00 -9999.00 -9999.00 -9999.00 -9999.00 -9999.00 -9999.00 -9999.00 -9999.00 -9999.00 -9999.00 -9999.00 -9999.00 -9999.00 -9999.00 -9999.00 -9999.00 -9999.00 -9999.00 -9999.00 -9999.00 -9999.00 -9999.00 -9999.00 -9999.00 -9999.00 -9999.00 -9999.00 -9999.00 -9999.00 -9999.00 -9999.00 -9999.00 -9999.00 -9999.00 -9999.00 -9999.00 -9999.00 -9999.00 -9999.00 -9999.00 -9999.00 -9999.00 -9999.00 -9999.00 -9999.00 -9999.00 -9999.00 -9999.00 -9999.00 -9999.00 -9999.00 -9999.00 -9999.00 -9999.00 -9999.00 -9999.00 -9999.00 -9999.00 -9999.00 -9999.00 -9999.00 -9999.00 -9999.00 -9999.00 -9999.00 -9999.00 -9999.00 -9999.00 -9999.00 -9999.00 -9999.00 -9999.00 -9999.00 -9999.00 -9999.00 -9999.00 -9999.00 -9999.00 -9999.00 -9999.00 -9999.00 -9999.00 -9999.00 -9999.00 -9999.00 -9999.00 -9999.00 -9999.00 -9999.00 -9999.00 -9999.00 -9999.00 -9999.00 -9999.00 -9999.00 -9999.00 -9999.00 -9999.00 -9999.00 -9999.00 -9999.00 -9999.00 -9999.00 -9999.00 -9999.00 -9999.00 -9999.00 -9999.00 -9999.00 -9999.00 -9999.00 -9999.00 -9999.00 -9999.00 -9999.00 -9999.00 -9999.00 -9999.00 -9999.00 -9999.00 -9999.00 -9999.00 -9999.00 -9999.00 -9999.00 -9999.00 -9999.00 -9999.00 -9999.00 -9999.00 -9999.00 -9999.00 -9999.00 -9999.00 -9999.00 -9999.00 -9999.00 -9999.00 -9999.00 -9999.00 -9999.00 -9999.00 -9999.00 -9999.00 -9999.00 -9999.00 -9999.00 -9999.00 -9999.00 -9999.00 -9999.00 -9999.00 -18.53 -18.40 -18.31 -18.19 -18.06 -17.92 -17.78 -17.65 -17.50 -17.32 -17.18 -17.02 -16.84 -16.69 -16.55 -16.43 -16.31 -16.20 -16.09 -16.01 -15.93 -15.83 -15.71 -15.63 -15.57 -15.48 -15.38 -15.33 -15.24 -15.15 -15.08 -15.04 -15.02 -14.97 -14.96 -14.83 -14.82 -14.80 -14.72 -14.67 -14.64 -14.65 -14.58 -14.58 -14.57 -14.52 -14.47 -14.42 -14.38 -14.37 -14.35 -14.33 -14.29 -14.26 -14.21 -14.20 -14.14 -14.09 -14.05 -14.07 -14.07 -14.09 -14.09 -14.11 -14.11 -14.11 -13.93 -13.79 -13.66 -13.59 -13.51 -13.46 -13.44 -13.37 -13.39 -13.42 -13.37 -13.32 -13.31 -13.30 -13.29 -13.26 -13.30 -13.29 -13.24 -13.23 -13.19 -13.14 -13.12 -13.06 -12.98 -12.89 -12.83 -12.76 -12.67 -12.55 -12.46 -12.42 -12.34 -12.26 -12.18 -12.08 -12.02 -11.91 -11.89 -11.82 -11.75 -11.72 -11.69 -11.65 -11.59 -11.56 -11.52 -11.49 -11.54 -11.60 -11.51 -11.41 -11.36 -11.33 -11.32 -11.34 -11.34 -11.32 -11.29 -11.19 -11.17 -11.08 -11.02 -10.99 -10.94 -10.90 -10.84 -10.74 -10.71 -10.67 -10.59 -10.55 -10.50 -10.54 -10.51 -10.52 -10.48 -10.42 -10.38 -10.33 -10.29 -10.25 -10.24 -10.20 -10.14 -10.09 -10.03 -9.98 -9.91 -9.81 -9.74 -9.77 -9.78 -9.77 -9.78 -9.82 -9.83 -9.81 -9.80 -9.78 -9.74 -9.66 -9.64 -9.62 -9.67 -9.60 -9.60 -9.57 -9.54 -9.52 -9.52 -9.54 -9.51 -9.50 -9.46 -9.42 -9.42 -9.40 -9.34 -9.27 -9.23 -9.16 -9.06 -9.03 -9.05 -9.07 -9.10 -9.12 -9.14 -9.08 -8.97 -8.84 -8.70 -8.55 -8.39 -8.23 -8.20 -8.16 -8.13 -8.09 -8.05 -8.01 -7.98 -7.94
-9999.00 -9999.00 -9999.00 -9999.00 -9999.00 -9999.00 -9999.00 -9999.00 -9999.00 -9999.00 -9999.00 -9999.00 -9999.00 -9999.00 -9999.00 -9999.00 -9999.00 -9999.00 -9999.00 -9999.00 -9999.00 -9999.00 -9999.00 -9999.00 -9999.00 -9999.00 -9999.00 -9999.00 -9999.00 -9999.00 -9999.00 -9999.00 -9999.00 -9999.00 -9999.00 -9999.00 -9999.00 -9999.00 -9999.00 -9999.00 -9999.00 -9999.00 -9999.00 -9999.00 -9999.00 -9999.00 -9999.00 -9999.00 -9999.00 -9999.00 -9999.00 -9999.00 -9999.00 -9999.00 -9999.00 -9999.00 -9999.00 -9999.00 -9999.00 -9999.00 -9999.00 -9999.00 -9999.00 -9999.00 -9999.00 -9999.00 -9999.00 -9999.00 -9999.00 -9999.00 -9999.00 -9999.00 -9999.00 -9999.00 -9999.00 -9999.00 -9999.00 -9999.00 -9999.00 -9999.00 -9999.00 -9999.00 -9999.00 -9999.00 -9999.00 -9999.00 -9999.00 -9999.00 -9999.00 -9999.00 -9999.00 -9999.00 -9999.00 -9999.00 -9999.00 -9999.00 -9999.00 -9999.00 -9999.00 -9999.00 -9999.00 -9999.00 -9999.00 -9999.00 -9999.00 -9999.00 -9999.00 -9999.00 -9999.00 -9999.00 -9999.00 -9999.00 -9999.00 -9999.00 -9999.00 -9999.00 -9999.00 -9999.00 -9999.00 -9999.00 -9999.00 -9999.00 -9999.00 -9999.00 -9999.00 -9999.00 -9999.00 -9999.00 -9999.00 -9999.00 -9999.00 -9999.00 -9999.00 -9999.00 -9999.00 -9999.00 -9999.00 -9999.00 -9999.00 -9999.00 -9999.00 -9999.00 -9999.00 -9999.00 -9999.00 -9999.00 -9999.00 -9999.00 -9999.00 -9999.00 -9999.00 -9999.00 -9999.00 -9999.00 -9999.00 -9999.00 -9999.00 -9999.00 -9999.00 -9999.00 -9999.00 -9999.00 -9999.00 -18.57 -18.43 -18.30 -18.14 -18.01 -17.86 -17.73 -17.59 -17.44 -17.29 -17.15 -17.01 -16.86 -16.71 -16.55 -16.42 -16.28 -16.16 -16.06 -15.94 -15.87 -15.79 -15.69 -15.59 -15.51 -15.44 -15.36 -15.25 -15.18 -15.11 -15.05 -14.96 -14.93 -14.90 -14.88 -14.85 -14.80 -14.78 -14.74 -14.65 -14.61 -14.60 -14.58 -14.54 -14.53 -14.56 -14.46 -14.44 -14.37 -14.34 -14.31 -14.29 -14.25 -14.22 -14.19 -14.14 -14.11 -14.06 -13.99 -13.94 -13.94 -13.93 -13.91 -13.89 -13.89 -13.88 -13.87 -13.87 -13.79 -13.67 -13.59 -13.50 -13.47 -13.42 -13.37 -13.35 -13.42 -13.33 -13.30 -13.28 -13.25 -13.27 -13.25 -13.27 -13.27 -13.25 -13.20 -13.16 -13.15 -13.11 -13.06 -13.02 -12.93 -12.87 -12.79 -12.68 -12.60 -12.52 -12.42 -12.33 -12.24 -12.14 -12.04 -11.91 -11.87 -11.81 -11.76 -11.71 -11.69 -11.64 -11.60 -11.54 -11.43 -11.39 -11.42 -11.48 -11.48 -11.36 -11.27 -11.28 -11.27 -11.27 -11.27 -11.25 -11.21 -11.19 -11.20 -11.15 -11.06 -10.93 -10.89 -10.84 -10.79 -10.73 -10.76 -10.65 -10.60 -10.57 -10.50 -10.50 -10.45 -10.45 -10.46 -10.45 -10.42 -10.36 -10.32 -10.30 -10.26 -10.23 -10.20 -10.14 -10.09 -10.01 -9.93 -9.87 -9.81 -9.75 -9.68 -9.65 -9.71 -9.76 -9.76 -9.76 -9.71 -9.67 -9.62 -9.63 -9.61 -9.61 -9.53 -9.54 -9.55 -9.53 -9.53 -9.51 -9.53 -9.51 -9.50 -9.44 -9.41 -9.40 -9.35 -9.33 -9.29 -9.31 -9.24 -9.17 -9.12 -9.06 -9.02 -9.02 -9.04 -9.05 -9.07 -9.07 -9.08 -9.01 -8.86 -8.73 -8.60 -8.50 -8.43 -8.33 -8.26 -8.19 -8.14 -8.08 -8.02 -7.94 -7.88 -7.84
-9999.00 -9999.00 -9999.00 -9999.00 -9999.00 -9999.00 -9999.00 -9999.00 -9999.00 -9999.00 -9999.00 -9999.00 -9999.00 -9999.00 -9999.00 -9999.00 -9999.00 -9999.00 -9999.00 -9999.00 -9999.00 -9999.00 -9999.00 -9999.00 -9999.00 -9999.00 -9999.00 -9999.00 -9999.00 -9999.00 -9999.00 -9999.00 -9999.00 -9999.00 -9999.00 -9999.00 -9999.00 -9999.00 -9999.00 -9999.00 -9999.00 -9999.00 -9999.00 -9999.00 -9999.00 -9999.00 -9999.00 -9999.00 -9999.00 -9999.00 -9999.00 -9999.00 -9999.00 -9999.00 -9999.00 -9999.00 -9999.00 -9999.00 -9999.00 -9999.00 -9999.00 -9999.00 -9999.00 -9999.00 -9999.00 -9999.00 -9999.00 -9999.00 -9999.00 -9999.00 -9999.00 -9999.00 -9999.00 -9999.00 -9999.00 -9999.00 -9999.00 -9999.00 -9999.00 -9999.00 -9999.00 -9999.00 -9999.00 -9999.00 -9999.00 -9999.00 -9999.00 -9999.00 -9999.00 -9999.00 -9999.00 -9999.00 -9999.00 -9999.00 -9999.00 -9999.00 -9999.00 -9999.00 -9999.00 -9999.00 -9999.00 -9999.00 -9999.00 -9999.00 -9999.00 -9999.00 -9999.00 -9999.00 -9999.00 -9999.00 -9999.00 -9999.00 -9999.00 -9999.00 -9999.00 -9999.00 -9999.00 -9999.00 -9999.00 -9999.00 -9999.00 -9999.00 -9999.00 -9999.00 -9999.00 -9999.00 -9999.00 -9999.00 -9999.00 -9999.00 -9999.00 -9999.00 -9999.00 -9999.00 -9999.00 -9999.00 -9999.00 -9999.00 -9999.00 -9999.00 -9999.00 -9999.00 -9999.00 -9999.00 -9999.00 -9999.00 -9999.00 -9999.00 -9999.00 -9999.00 -9999.00 -9999.00 -9999.00 -9999.00 -9999.00 -9999.00 -9999.00 -9999.00 -9999.00 -9999.00 -9999.00 -18.52 -18.40 -18.28 -18.11 -17.99 -17.87 -17.67 -17.51 -17.39 -17.25 -17.09 -16.95 -16.82 -16.68 -16.56 -16.40 -16.29 -16.14 -16.02 -15.92 -15.78 -15.72 -15.64 -15.53 -15.44 -15.39 -15.31 -15.22 -15.16 -15.09 -15.01 -14.93 -14.87 -14.84 -14.79 -14.77 -14.75 -14.71 -14.69 -14.64 -14.60 -14.56 -14.53 -14.52 -14.50 -14.49 -14.49 -14.41 -14.38 -14.32 -14.28 -14.24 -14.22 -14.17 -14.13 -14.09 -14.07 -14.04 -13.96 -13.91 -13.85 -13.79 -13.78 -13.73 -13.70 -13.66 -13.65 -13.64 -13.64 -13.63 -13.67 -13.60 -13.50 -13.43 -13.37 -13.32 -13.24 -13.31 -13.28 -13.27 -13.28 -13.26 -13.21 -13.20 -13.21 -13.23 -13.23 -13.18 -13.14 -13.13 -13.11 -13.04 -12.98 -12.96 -12.91 -12.81 -12.74 -12.67 -12.59 -12.48 -12.33 -12.19 -12.12 -12.00 -11.92 -11.83 -11.78 -11.75 -11.70 -11.69 -11.63 -11.54 -11.44 -11.37 -11.32 -11.27 -11.24 -11.17 -11.11 -11.11 -11.15 -11.15 -11.20 -11.20 -11.16 -11.12 -11.00 -10.93 -10.95 -10.82 -10.69 -10.59 -10.62 -10.51 -10.44 -10.37 -10.47 -10.42 -10.42 -10.41 -10.28 -10.26 -10.29 -10.34 -10.27 -10.27 -10.37 -10.31 -10.25 -10.16 -10.13 -10.13 -10.13 -10.07 -10.02 -9.93 -9.84 -9.76 -9.65 -9.66 -9.68 -9.69 -9.70 -9.69 -9.65 -9.63 -9.61 -9.59 -9.57 -9.52 -9.50 -9.53 -9.52 -9.50 -9.47 -9.47 -9.46 -9.45 -9.41 -9.39 -9.36 -9.32 -9.29 -9.29 -9.29 -9.26 -9.23 -9.23 -9.18 -9.12 -9.08 -9.02 -8.97 -8.94 -8.92 -8.90 -8.91 -8.88 -8.84 -8.74 -8.59 -8.50 -8.43 -8.35 -8.26 -8.14 -8.08 -8.04 -8.01 -7.99 -7.96 -7.95 -7.94 -7.91
-9999.00 -9999.00 -9999.00 -9999.00 -9999.00 -9999.00 -9999.00 -9999.00 -9999.00 -9999.00 -9999.00 -9999.00 -9999.00 -9999.00 -9999.00 -9999.00 -9999.00 -9999.00 -9999.00 -9999.00 -9999.00 -9999.00 -9999.00 -9999.00 -9999.00 -9999.00 -9999.00 -9999.00 -9999.00 -9999.00 -9999.00 -9999.00 -9999.00 -9999.00 -9999.00 -9999.00 -9999.00 -9999.00 -9999.00 -9999.00 -9999.00 -9999.00 -9999.00 -9999.00 -9999.00 -9999.00 -9999.00 -9999.00 -9999.00 -9999.00 -9999.00 -9999.00 -9999.00 -9999.00 -9999.00 -9999.00 -9999.00 -9999.00 -9999.00 -9999.00 -9999.00 -9999.00 -9999.00 -9999.00 -9999.00 -9999.00 -9999.00 -9999.00 -9999.00 -9999.00 -9999.00 -9999.00 -9999.00 -9999.00 -9999.00 -9999.00 -9999.00 -9999.00 -9999.00 -9999.00 -9999.00 -9999.00 -9999.00 -9999.00 -9999.00 -9999.00 -9999.00 -9999.00 -9999.00 -9999.00 -9999.00 -9999.00 -9999.00 -9999.00 -9999.00 -9999.00 -9999.00 -9999.00 -9999.00 -9999.00 -9999.00 -9999.00 -9999.00 -9999.00 -9999.00 -9999.00 -9999.00 -9999.00 -9999.00 -9999.00 -9999.00 -9999.00 -9999.00 -9999.00 -9999.00 -9999.00 -9999.00 -9999.00 -9999.00 -9999.00 -9999.00 -9999.00 -9999.00 -9999.00 -9999.00 -9999.00 -9999.00 -9999.00 -9999.00 -9999.00 -9999.00 -9999.00 -9999.00 -9999.00 -9999.00 -9999.00 -9999.00 -9999.00 -9999.00 -9999.00 -9999.00 -9999.00 -9999.00 -9999.00 -9999.00 -9999.00 -9999.00 -9999.00 -9999.00 -9999.00 -9999.00 -9999.00 -9999.00 -9999.00 -9999.00 -9999.00 -9999.00 -9999.00 -9999.00 -18.55 -18.43 -18.26 -18.10 -17.96 -17.80 -17.67 -17.58 -17.40 -17.19 -17.03 -16.90 -16.77 -16.63 -16.50 -16.38 -16.30 -16.14 -16.00 -15.87 -15.77 -15.66 -15.57 -15.46 -15.36 -15.30 -15.26 -15.16 -15.07 -15.02 -14.96 -14.90 -14.83 -14.81 -14.74 -14.70 -14.69 -14.64 -14.63 -14.56 -14.53 -14.50 -14.48 -14.45 -14.43 -14.44 -14.45 -14.42 -14.37 -14.32 -14.28 -14.21 -14.18 -14.15 -14.09 -14.04 -14.03 -13.98 -13.93 -13.88 -13.84 -13.76 -13.70 -13.63 -13.57 -13.54 -13.51 -13.47 -13.44 -13.42 -13.42 -13.45 -13.46 -13.47 -13.38 -13.34 -13.29 -13.27 -13.23 -13.16 -13.19 -13.19 -13.18 -13.11 -13.14 -13.17 -13.17 -13.14 -13.13 -13.12 -13.10 -13.07 -13.01 -12.96 -12.95 -12.92 -12.87 -12.81 -12.72 -12.62 -12.50 -12.34 -12.21 -12.07 -11.95 -11.88 -11.81 -11.73 -11.75 -11.74 -11.65 -11.59 -11.49 -11.36 -11.29 -11.14 -11.08 -10.97 -10.95 -10.86 -10.89 -10.94 -10.82 -10.82 -10.82 -10.72 -10.63 -10.52 -10.42 -10.37 -10.39 -10.24 -10.13 -10.09 -10.01 -9.94 -9.91 -9.95 -9.97 -9.93 -9.91 -9.85 -9.84 -9.85 -9.89 -9.87 -9.89 -9.96 -10.00 -9.93 -9.80 -9.80 -9.84 -9.91 -9.97 -9.96 -9.84 -9.71 -9.65 -9.62 -9.63 -9.61 -9.68 -9.69 -9.68 -9.63 -9.61 -9.57 -9.50 -9.47 -9.51 -9.49 -9.44 -9.44 -9.44 -9.44 -9.44 -9.37 -9.38 -9.36 -9.32 -9.31 -9.28 -9.25 -9.23 -9.23 -9.20 -9.18 -9.18 -9.17 -9.11 -9.06 -9.03 -8.98 -8.93 -8.88 -8.82 -8.77 -8.74 -8.72 -8.70 -8.69 -8.63 -8.53 -8.43 -8.32 -8.21 -8.10 -8.03 -8.03 -8.02 -8.01 -8.01 -8.02 -8.01 -7.96
-9999.00 -9999.00 -9999.00 -9999.00 -9999.00 -9999.00 -9999.00 -9999.00 -9999.00 -9999.00 -9999.00 -9999.00 -9999.00 -9999.00 -9999.00 -9999.00 -9999.00 -9999.00 -9999.00 -9999.00 -9999.00 -9999.00 -9999.00 -9999.00 -9999.00 -9999.00 -9999.00 -9999.00 -9999.00 -9999.00 -9999.00 -9999.00 -9999.00 -9999.00 -9999.00 -9999.00 -9999.00 -9999.00 -9999.00 -9999.00 -9999.00 -9999.00 -9999.00 -9999.00 -9999.00 -9999.00 -9999.00 -9999.00 -9999.00 -9999.00 -9999.00 -9999.00 -9999.00 -9999.00 -9999.00 -9999.00 -9999.00 -9999.00 -9999.00 -9999.00 -9999.00 -9999.00 -9999.00 -9999.00 -9999.00 -9999.00 -9999.00 -9999.00 -9999.00 -9999.00 -9999.00 -9999.00 -9999.00 -9999.00 -9999.00 -9999.00 -9999.00 -9999.00 -9999.00 -9999.00 -9999.00 -9999.00 -9999.00 -9999.00 -9999.00 -9999.00 -9999.00 -9999.00 -9999.00 -9999.00 -9999.00 -9999.00 -9999.00 -9999.00 -9999.00 -9999.00 -9999.00 -9999.00 -9999.00 -9999.00 -9999.00 -9999.00 -9999.00 -9999.00 -9999.00 -9999.00 -9999.00 -9999.00 -9999.00 -9999.00 -9999.00 -9999.00 -9999.00 -9999.00 -9999.00 -9999.00 -9999.00 -9999.00 -9999.00 -9999.00 -9999.00 -9999.00 -9999.00 -9999.00 -9999.00 -9999.00 -9999.00 -9999.00 -9999.00 -9999.00 -9999.00 -9999.00 -9999.00 -9999.00 -9999.00 -9999.00 -9999.00 -9999.00 -9999.00 -9999.00 -9999.00 -9999.00 -9999.00 -9999.00 -9999.00 -9999.00 -9999.00 -9999.00 -9999.00 -9999.00 -9999.00 -9999.00 -9999.00 -9999.00 -9999.00 -9999.00 -9999.00 -18.43 -18.38 -18.25 -18.10 -17.94 -17.79 -17.62 -17.49 -17.33 -17.19 -17.09 -16.92 -16.74 -16.59 -16.44 -16.33 -16.17 -16.10 -15.97 -15.86 -15.72 -15.62 -15.54 -15.42 -15.30 -15.22 -15.18 -15.14 -15.04 -14.96 -14.89 -14.87 -14.81 -14.75 -14.70 -14.64 -14.60 -14.54 -14.55 -14.48 -14.44 -14.40 -14.39 -14.37 -14.34 -14.36 -14.35 -14.33 -14.33 -14.32 -14.27 -14.24 -14.17 -14.13 -14.10 -14.03 -13.99 -13.95 -13.90 -13.85 -13.83 -13.72 -13.68 -13.59 -13.52 -13.48 -13.42 -13.34 -13.28 -13.25 -13.23 -13.22 -13.23 -13.23 -13.27 -13.29 -13.26 -13.22 -13.15 -13.11 -13.11 -13.10 -13.05 -13.00 -12.97 -13.02 -13.07 -13.11 -13.10 -13.09 -13.10 -13.10 -13.06 -13.04 -12.99 -12.88 -12.96 -12.88 -12.77 -12.71 -12.57 -12.38 -12.26 -12.18 -11.98 -11.88 -11.81 -11.60 -11.54 -11.62 -11.61 -11.45 -11.40 -11.31 -11.19 -11.08 -10.95 -10.91 -10.85 -10.68 -10.54 -10.62 -10.49 -10.32 -10.32 -10.31 -10.27 -10.21 -10.02 -9.93 -10.01 -9.96 -9.85 -9.75 -9.70 -9.63 -9.51 -9.47 -9.56 -9.54 -9.47 -9.40 -9.42 -9.39 -9.41 -9.49 -9.46 -9.45 -9.43 -9.51 -9.50 -9.46 -9.52 -9.60 -9.69 -9.71 -9.67 -9.63 -9.55 -9.55 -9.51 -9.49 -9.52 -9.55 -9.61 -9.64 -9.61 -9.52 -9.42 -9.44 -9.45 -9.40 -9.43 -9.45 -9.42 -9.38 -9.32 -9.34 -9.36 -9.38 -9.35 -9.29 -9.27 -9.26 -9.22 -9.20 -9.17 -9.15 -9.12 -9.11 -9.10 -9.07 -9.03 -8.97 -8.91 -8.86 -8.82 -8.80 -8.80 -8.79 -8.78 -8.76 -8.76 -8.77 -8.67 -8.57 -8.45 -8.34 -8.28 -8.26 -8.24 -8.24 -8.22 -8.19 -8.15 -8.12 -8.06 -8.01
-9999.00 -9999.00 -9999.00 -9999.00 -9999.00 -9999.00 -9999.00 -9999.00 -9999.00 -9999.00 -9999.00 -9999.00 -9999.00 -9999.00 -9999.00 -9999.00 -9999.00 -9999.00 -9999.00 -9999.00 -9999.00 -9999.00 -9999.00 -9999.00 -9999.00 -9999.00 -9999.00 -9999.00 -9999.00 -9999.00 -9999.00 -9999.00 -9999.00 -9999.00 -9999.00 -9999.00 -9999.00 -9999.00 -9999.00 -9999.00 -9999.00 -9999.00 -9999.00 -9999.00 -9999.00 -9999.00 -9999.00 -9999.00 -9999.00 -9999.00 -9999.00 -9999.00 -9999.00 -9999.00 -9999.00 -9999.00 -9999.00 -9999.00 -9999.00 -9999.00 -9999.00 -9999.00 -9999.00 -9999.00 -9999.00 -9999.00 -9999.00 -9999.00 -9999.00 -9999.00 -9999.00 -9999.00 -9999.00 -9999.00 -9999.00 -9999.00 -9999.00 -9999.00 -9999.00 -9999.00 -9999.00 -9999.00 -9999.00 -9999.00 -9999.00 -9999.00 -9999.00 -9999.00 -9999.00 -9999.00 -9999.00 -9999.00 -9999.00 -9999.00 -9999.00 -9999.00 -9999.00 -9999.00 -9999.00 -9999.00 -9999.00 -9999.00 -9999.00 -9999.00 -9999.00 -9999.00 -9999.00 -9999.00 -9999.00 -9999.00 -9999.00 -9999.00 -9999.00 -9999.00 -9999.00 -9999.00 -9999.00 -9999.00 -9999.00 -9999.00 -9999.00 -9999.00 -9999.00 -9999.00 -9999.00 -9999.00 -9999.00 -9999.00 -9999.00 -9999.00 -9999.00 -9999.00 -9999.00 -9999.00 -9999.00 -9999.00 -9999.00 -9999.00 -9999.00 -9999.00 -9999.00 -9999.00 -9999.00 -9999.00 -9999.00 -9999.00 -9999.00 -9999.00 -9999.00 -9999.00 -9999.00 -9999.00 -9999.00 -9999.00 -9999.00 -9999.00 -18.24 -18.15 -18.04 -17.87 -17.74 -17.63 -17.47 -17.31 -17.15 -16.99 -16.86 -16.70 -16.62 -16.44 -16.27 -16.14 -15.98 -15.90 -15.78 -15.66 -15.57 -15.47 -15.38 -15.27 -15.17 -15.09 -15.07 -15.03 -14.95 -14.87 -14.82 -14.78 -14.71 -14.67 -14.59 -14.51 -14.46 -14.42 -14.41 -14.36 -14.33 -14.27 -14.27 -14.25 -14.21 -14.20 -14.21 -14.23 -14.22 -14.22 -14.22 -14.19 -14.12 -14.08 -14.05 -13.99 -13.94 -13.87 -13.82 -13.81 -13.71 -13.65 -13.60 -13.51 -13.44 -13.38 -13.34 -13.26 -13.16 -13.09 -13.08 -13.04 -13.00 -13.02 -13.05 -13.08 -13.13 -13.10 -13.08 -13.03 -13.04 -13.01 -12.95 -12.87 -12.87 -12.89 -12.90 -12.95 -13.01 -13.03 -12.95 -12.80 -12.86 -13.03 -12.72 -12.47 -12.53 -12.69 -12.43 -12.39 -12.28 -12.10 -12.02 -11.95 -11.76 -11.62 -11.51 -11.33 -11.38 -11.35 -11.30 -11.22 -11.12 -11.07 -11.05 -10.96 -10.86 -10.72 -10.69 -10.51 -10.39 -10.32 -10.22 -10.19 -10.10 -10.02 -10.01 -10.00 -9.95 -9.84 -9.73 -9.68 -9.62 -9.58 -9.49 -9.37 -9.35 -9.32 -9.23 -9.16 -9.18 -9.19 -9.20 -9.13 -9.13 -9.12 -9.15 -9.14 -9.15 -9.29 -9.27 -9.27 -9.33 -9.36 -9.37 -9.36 -9.32 -9.38 -9.48 -9.40 -9.37 -9.36 -9.33 -9.37 -9.43 -9.47 -9.39 -9.30 -9.30 -9.31 -9.38 -9.40 -9.38 -9.31 -9.24 -9.22 -9.22 -9.25 -9.27 -9.25 -9.34 -9.29 -9.26 -9.22 -9.16 -9.10 -9.08 -9.07 -9.05 -9.03 -9.01 -8.95 -8.93 -8.89 -8.86 -8.84 -8.82 -8.81 -8.79 -8.77 -8.74 -8.74 -8.73 -8.73 -8.73 -8.68 -8.60 -8.54 -8.49 -8.43 -8.40 -8.36 -8.31 -8.26 -8.20 -8.13 -8.09 -8.03 -7.90
-9999.00 -9999.00 -9999.00 -9999.00 -9999.00 -9999.00 -9999.00 -9999.00 -9999.00 -9999.00 -9999.00 -9999.00 -9999.00 -9999.00 -9999.00 -9999.00 -9999.00 -9999.00 -9999.00 -9999.00 -9999.00 -9999.00 -9999.00 -9999.00 -9999.00 -9999.00 -9999.00 -9999.00 -9999.00 -9999.00 -9999.00 -9999.00 -9999.00 -9999.00 -9999.00 -9999.00 -9999.00 -9999.00 -9999.00 -9999.00 -9999.00 -9999.00 -9999.00 -9999.00 -9999.00 -9999.00 -9999.00 -9999.00 -9999.00 -9999.00 -9999.00 -9999.00 -9999.00 -9999.00 -9999.00 -9999.00 -9999.00 -9999.00 -9999.00 -9999.00 -9999.00 -9999.00 -9999.00 -9999.00 -9999.00 -9999.00 -9999.00 -9999.00 -9999.00 -9999.00 -9999.00 -9999.00 -9999.00 -9999.00 -9999.00 -9999.00 -9999.00 -9999.00 -9999.00 -9999.00 -9999.00 -9999.00 -9999.00 -9999.00 -9999.00 -9999.00 -9999.00 -9999.00 -9999.00 -9999.00 -9999.00 -9999.00 -9999.00 -9999.00 -9999.00 -9999.00 -9999.00 -9999.00 -9999.00 -9999.00 -9999.00 -9999.00 -9999.00 -9999.00 -9999.00 -9999.00 -9999.00 -9999.00 -9999.00 -9999.00 -9999.00 -9999.00 -9999.00 -9999.00 -9999.00 -9999.00 -9999.00 -9999.00 -9999.00 -9999.00 -9999.00 -9999.00 -9999.00 -9999.00 -9999.00 -9999.00 -9999.00 -9999.00 -9999.00 -9999.00 -9999.00 -9999.00 -9999.00 -9999.00 -9999.00 -9999.00 -9999.00 -9999.00 -9999.00 -9999.00 -9999.00 -9999.00 -9999.00 -9999.00 -9999.00 -9999.00 -9999.00 -9999.00 -9999.00 -9999.00 -9999.00 -9999.00 -9999.00 -9999.00 -18.10 -18.03 -17.95 -17.84 -17.68 -17.55 -17.39 -17.28 -17.13 -16.98 -16.81 -16.67 -16.51 -16.38 -16.28 -16.12 -15.98 -15.81 -15.70 -15.57 -15.50 -15.43 -15.29 -15.18 -15.13 -15.03 -14.97 -14.94 -14.90 -14.84 -14.80 -14.71 -14.66 -14.63 -14.56 -14.46 -14.41 -14.35 -14.31 -14.29 -14.28 -14.23 -14.20 -14.16 -14.14 -14.09 -14.07 -14.08 -14.10 -14.11 -14.13 -14.12 -14.10 -14.08 -14.03 -14.00 -13.95 -13.88 -13.81 -13.74 -13.72 -13.66 -13.62 -13.56 -13.49 -13.40 -13.32 -13.27 -13.23 -13.12 -13.06 -12.98 -12.93 -12.89 -12.83 -12.88 -12.93 -12.96 -12.98 -13.00 -12.93 -12.94 -12.93 -12.91 -12.82 -12.78 -12.77 -12.73 -12.69 -12.68 -12.70 -12.67 -12.48 -12.33 -12.38 -12.19 -12.15 -12.01 -12.07 -11.98 -11.83 -11.89 -11.74 -11.75 -11.70 -11.63 -11.41 -11.34 -11.23 -11.16 -11.05 -11.02 -10.95 -10.91 -10.90 -10.82 -10.76 -10.74 -10.55 -10.42 -10.36 -10.17 -10.10 -10.03 -9.96 -9.83 -9.78 -9.84 -9.77 -9.70 -9.63 -9.64 -9.57 -9.49 -9.44 -9.31 -9.23 -9.13 -9.04 -8.91 -8.86 -8.84 -8.82 -8.78 -8.75 -8.80 -8.81 -8.77 -8.82 -8.87 -8.93 -8.96 -8.94 -8.91 -8.94 -9.00 -8.96 -9.08 -9.09 -9.10 -9.16 -9.18 -9.10 -9.12 -9.19 -9.19 -9.14 -9.12 -9.17 -9.21 -9.19 -9.17 -9.14 -9.10 -9.06 -9.08 -9.09 -9.10 -9.10 -9.18 -9.18 -9.21 -9.23 -9.13 -9.03 -8.99 -8.95 -8.98 -8.98 -8.98 -8.97 -8.94 -8.87 -8.81 -8.74 -8.70 -8.70 -8.69 -8.69 -8.70 -8.66 -8.66 -8.65 -8.61 -8.60 -8.60 -8.64 -8.64 -8.57 -8.51 -8.46 -8.42 -8.40 -8.36 -8.29 -8.22 -8.14 -8.07 -8.00 -7.94 -7.87
-9999.00 -9999.00 -9999.00 -9999.00 -9999.00 -9999.00 -9999.00 -9999.00 -9999.00 -9999.00 -9999.00 -9999.00 -9999.00 -9999.00 -9999.00 -9999.00 -9999.00 -9999.00 -9999.00 -9999.00 -9999.00 -9999.00 -9999.00 -9999.00 -9999.00 -9999.00 -9999.00 -9999.00 -9999.00 -9999.00 -9999.00 -9999.00 -9999.00 -9999.00 -9999.00 -9999.00 -9999.00 -9999.00 -9999.00 -9999.00 -9999.00 -9999.00 -9999.00 -9999.00 -9999.00 -9999.00 -9999.00 -9999.00 -9999.00 -9999.00 -9999.00 -9999.00 -9999.00 -9999.00 -9999.00 -9999.00 -9999.00 -9999.00 -9999.00 -9999.00 -9999.00 -9999.00 -9999.00 -9999.00 -9999.00 -9999.00 -9999.00 -9999.00 -9999.00 -9999.00 -9999.00 -9999.00 -9999.00 -9999.00 -9999.00 -9999.00 -9999.00 -9999.00 -9999.00 -9999.00 -9999.00 -9999.00 -9999.00 -9999.00 -9999.00 -9999.00 -9999.00 -9999.00 -9999.00 -9999.00 -9999.00 -9999.00 -9999.00 -9999.00 -9999.00 -9999.00 -9999.00 -9999.00 -9999.00 -9999.00 -9999.00 -9999.00 -9999.00 -9999.00 -9999.00 -9999.00 -9999.00 -9999.00 -9999.00 -9999.00 -9999.00 -9999.00 -9999.00 -9999.00 -9999.00 -9999.00 -9999.00 -9999.00 -9999.00 -9999.00 -9999.00 -9999.00 -9999.00 -9999.00 -9999.00 -9999.00 -9999.00 -9999.00 -9999.00 -9999.00 -9999.00 -9999.00 -9999.00 -9999.00 -9999.00 -9999.00 -9999.00 -9999.00 -9999.00 -9999.00 -9999.00 -9999.00 -9999.00 -9999.00 -9999.00 -9999.00 -9999.00 -9999.00 -9999.00 -9999.00 -9999.00 -9999.00 -17.96 -17.90 -17.82 -17.75 -17.63 -17.49 -17.37 -17.23 -17.06 -16.93 -16.79 -16.64 -16.45 -16.32 -16.14 -16.01 -15.88 -15.83 -15.69 -15.57 -15.46 -15.38 -15.27 -15.16 -15.10 -15.01 -14.94 -14.84 -14.80 -14.75 -14.72 -14.67 -14.59 -14.52 -14.50 -14.41 -14.34 -14.30 -14.25 -14.22 -14.19 -14.19 -14.13 -14.11 -14.07 -14.05 -14.01 -13.95 -13.95 -13.96 -13.97 -14.00 -13.99 -13.99 -13.97 -13.95 -13.95 -13.92 -13.83 -13.75 -13.71 -13.68 -13.67 -13.60 -13.53 -13.47 -13.38 -13.32 -13.26 -13.18 -13.10 -13.05 -12.97 -12.90 -12.88 -12.80 -12.76 -12.79 -12.84 -12.88 -12.92 -12.90 -12.84 -12.84 -12.83 -12.79 -12.75 -12.69 -12.65 -12.62 -12.51 -12.33 -12.19 -11.91 -11.87 -11.76 -11.61 -11.60 -11.57 -11.54 -11.50 -11.46 -11.40 -11.26 -11.31 -11.37 -11.26 -11.13 -10.99 -10.92 -10.88 -10.81 -10.70 -10.67 -10.69 -10.64 -10.57 -10.49 -10.41 -10.35 -10.16 -10.03 -10.02 -9.85 -9.83 -9.74 -9.59 -9.47 -9.46 -9.55 -9.54 -9.44 -9.49 -9.45 -9.35 -9.26 -9.11 -9.00 -8.95 -8.88 -8.56 -8.62 -8.59 -8.46 -8.47 -8.44 -8.37 -8.36 -8.44 -8.43 -8.36 -8.37 -8.40 -8.33 -8.33 -8.43 -8.55 -8.69 -8.68 -8.66 -8.66 -8.76 -8.77 -8.87 -8.94 -8.91 -8.90 -8.86 -8.89 -8.91 -8.92 -8.96 -8.93 -8.94 -8.95 -8.94 -8.94 -8.94 -9.00 -8.99 -9.00 -9.04 -9.01 -8.90 -8.80 -8.84 -8.82 -8.83 -8.85 -8.89 -8.95 -8.91 -8.82 -8.73 -8.68 -8.66 -8.63 -8.57 -8.55 -8.55 -8.51 -8.47 -8.45 -8.40 -8.39 -8.40 -8.42 -8.45 -8.49 -8.54 -8.50 -8.46 -8.40 -8.36 -8.29 -8.22 -8.18 -8.13 -8.08 -8.03 -8.01 -7.97 -7.94
-9999.00 -9999.00 -9999.00 -9999.00 -9999.00 -9999.00 -9999.00 -9999.00 -9999.00 -9999.00 -9999.00 -9999.00 -9999.00 -9999.00 -9999.00 -9999.00 -9999.00 -9999.00 -9999.00 -9999.00 -9999.00 -9999.00 -9999.00 -9999.00 -9999.00 -9999.00 -9999.00 -9999.00 -9999.00 -9999.00 -9999.00 -9999.00 -9999.00 -9999.00 -9999.00 -9999.00 -9999.00 -9999.00 -9999.00 -9999.00 -9999.00 -9999.00 -9999.00 -9999.00 -9999.00 -9999.00 -9999.00 -9999.00 -9999.00 -9999.00 -9999.00 -9999.00 -9999.00 -9999.00 -9999.00 -9999.00 -9999.00 -9999.00 -9999.00 -9999.00 -9999.00 -9999.00 -9999.00 -9999.00 -9999.00 -9999.00 -9999.00 -9999.00 -9999.00 -9999.00 -9999.00 -9999.00 -9999.00 -9999.00 -9999.00 -9999.00 -9999.00 -9999.00 -9999.00 -9999.00 -9999.00 -9999.00 -9999.00 -9999.00 -9999.00 -9999.00 -9999.00 -9999.00 -9999.00 -9999.00 -9999.00 -9999.00 -9999.00 -9999.00 -9999.00 -9999.00 -9999.00 -9999.00 -9999.00 -9999.00 -9999.00 -9999.00 -9999.00 -9999.00 -9999.00 -9999.00 -9999.00 -9999.00 -9999.00 -9999.00 -9999.00 -9999.00 -9999.00 -9999.00 -9999.00 -9999.00 -9999.00 -9999.00 -9999.00 -9999.00 -9999.00 -9999.00 -9999.00 -9999.00 -9999.00 -9999.00 -9999.00 -9999.00 -9999.00 -9999.00 -9999.00 -9999.00 -9999.00 -9999.00 -9999.00 -9999.00 -9999.00 -9999.00 -9999.00 -9999.00 -9999.00 -9999.00 -9999.00 -9999.00 -9999.00 -9999.00 -9999.00 -9999.00 -9999.00 -9999.00 -17.93 -17.85 -17.73 -17.64 -17.56 -17.42 -17.32 -17.19 -17.05 -16.87 -16.74 -16.61 -16.43 -16.25 -16.15 -15.97 -15.86 -15.74 -15.65 -15.58 -15.47 -15.39 -15.25 -15.13 -15.10 -14.99 -14.90 -14.85 -14.79 -14.70 -14.66 -14.60 -14.52 -14.46 -14.44 -14.39 -14.32 -14.23 -14.19 -14.16 -14.13 -14.14 -14.12 -14.04 -14.01 -14.01 -13.96 -13.93 -13.88 -13.85 -13.84 -13.85 -13.85 -13.88 -13.85 -13.87 -13.84 -13.86 -13.85 -13.79 -13.71 -13.66 -13.63 -13.58 -13.53 -13.47 -13.43 -13.37 -13.29 -13.24 -13.15 -13.09 -13.04 -12.98 -12.90 -12.85 -12.77 -12.72 -12.73 -12.72 -12.78 -12.82 -12.88 -12.83 -12.79 -12.76 -12.71 -12.63 -12.49 -12.32 -12.18 -12.04 -11.83 -11.76 -11.60 -11.37 -11.34 -11.29 -11.24 -11.22 -11.13 -11.07 -11.06 -10.97 -10.81 -10.84 -10.77 -10.79 -10.71 -10.54 -10.50 -10.50 -10.49 -10.34 -10.29 -10.31 -10.28 -10.23 -10.17 -10.03 -9.98 -9.91 -9.80 -9.72 -9.59 -9.51 -9.38 -9.33 -9.35 -9.29 -9.29 -9.21 -9.14 -9.15 -9.14 -9.14 -9.10 -8.99 -8.85 -8.79 -8.76 -8.51 -8.40 -8.37 -8.25 -8.12 -8.14 -8.07 -8.02 -8.08 -8.04 -7.99 -7.97 -7.99 -7.98 -7.98 -7.95 -7.95 -8.07 -8.12 -8.17 -8.32 -8.33 -8.35 -8.39 -8.55 -8.69 -8.58 -8.57 -8.58 -8.65 -8.69 -8.77 -8.81 -8.80 -8.78 -8.77 -8.81 -8.80 -8.81 -8.82 -8.87 -8.78 -8.76 -8.71 -8.68 -8.64 -8.62 -8.68 -8.70 -8.67 -8.67 -8.68 -8.71 -8.68 -8.63 -8.57 -8.52 -8.43 -8.34 -8.31 -8.28 -8.25 -8.20 -8.16 -8.16 -8.19 -8.21 -8.24 -8.30 -8.37 -8.46 -8.45 -8.40 -8.35 -8.29 -8.23 -8.16 -8.11 -8.06 -8.03 -8.01 -7.98 -7.95 -7.93
-9999.00 -9999.00 -9999.00 -9999.00 -9999.00 -9999.00 -9999.00 -9999.00 -9999.00 -9999.00 -9999.00 -9999.00 -9999.00 -9999.00 -9999.00 -9999.00 -9999.00 -9999.00 -9999.00 -9999.00 -9999.00 -9999.00 -9999.00 -9999.00 -9999.00 -9999.00 -9999.00 -9999.00 -9999.00 -9999.00 -9999.00 -9999.00 -9999.00 -9999.00 -9999.00 -9999.00 -9999.00 -9999.00 -9999.00 -9999.00 -9999.00 -9999.00 -9999.00 -9999.00 -9999.00 -9999.00 -9999.00 -9999.00 -9999.00 -9999.00 -9999.00 -9999.00 -9999.00 -9999.00 -9999.00 -9999.00 -9999.00 -9999.00 -9999.00 -9999.00 -9999.00 -9999.00 -9999.00 -9999.00 -9999.00 -9999.00 -9999.00 -9999.00 -9999.00 -9999.00 -9999.00 -9999.00 -9999.00 -9999.00 -9999.00 -9999.00 -9999.00 -9999.00 -9999.00 -9999.00 -9999.00 -9999.00 -9999.00 -9999.00 -9999.00 -9999.00 -9999.00 -9999.00 -9999.00 -9999.00 -9999.00 -9999.00 -9999.00 -9999.00 -9999.00 -9999.00 -9999.00 -9999.00 -9999.00 -9999.00 -9999.00 -9999.00 -9999.00 -9999.00 -9999.00 -9999.00 -9999.00 -9999.00 -9999.00 -9999.00 -9999.00 -9999.00 -9999.00 -9999.00 -9999.00 -9999.00 -9999.00 -9999.00 -9999.00 -9999.00 -9999.00 -9999.00 -9999.00 -9999.00 -9999.00 -9999.00 -9999.00 -9999.00 -9999.00 -9999.00 -9999.00 -9999.00 -9999.00 -9999.00 -9999.00 -9999.00 -9999.00 -9999.00 -9999.00 -9999.00 -9999.00 -9999.00 -9999.00 -9999.00 -9999.00 -9999.00 -9999.00 -9999.00 -17.88 -17.81 -17.71 -17.61 -17.48 -17.35 -17.23 -17.12 -16.99 -16.86 -16.67 -16.55 -16.43 -16.29 -16.14 -15.98 -15.84 -15.74 -15.63 -15.51 -15.46 -15.38 -15.30 -15.19 -15.10 -14.96 -14.88 -14.80 -14.74 -14.66 -14.59 -14.54 -14.47 -14.41 -14.40 -14.34 -14.26 -14.19 -14.11 -14.10 -14.07 -14.07 -14.10 -14.04 -14.01 -13.94 -13.94 -13.87 -13.84 -13.81 -13.79 -13.77 -13.72 -13.73 -13.79 -13.77 -13.73 -13.77 -13.78 -13.75 -13.69 -13.64 -13.60 -13.53 -13.49 -13.44 -13.41 -13.36 -13.32 -13.28 -13.21 -13.12 -13.06 -13.02 -12.95 -12.89 -12.83 -12.77 -12.74 -12.73 -12.71 -12.70 -12.72 -12.76 -12.72 -12.63 -12.56 -12.60 -12.40 -12.26 -12.05 -11.82 -11.59 -11.48 -11.38 -11.26 -11.16 -11.02 -10.90 -10.88 -10.82 -10.77 -10.71 -10.57 -10.51 -10.41 -10.39 -10.33 -10.32 -10.29 -10.20 -10.04 -10.18 -10.07 -9.89 -9.90 -9.97 -10.00 -9.89 -9.81 -9.74 -9.71 -9.56 -9.50 -9.41 -9.31 -9.16 -9.08 -8.92 -9.00 -8.98 -9.00 -9.05 -8.94 -8.86 -8.86 -8.83 -8.70 -8.64 -8.54 -8.53 -8.56 -8.39 -8.26 -8.18 -7.91 -7.75 -7.69 -7.75 -7.75 -7.77 -7.65 -7.64 -7.59 -7.56 -7.48 -7.51 -7.47 -7.43 -7.41 -7.54 -7.62 -7.90 -7.91 -7.92 -7.94 -8.05 -8.22 -8.21 -8.29 -8.32 -8.36 -8.42 -8.47 -8.49 -8.54 -8.56 -8.52 -8.53 -8.52 -8.63 -8.70 -8.63 -8.61 -8.58 -8.56 -8.55 -8.54 -8.50 -8.48 -8.49 -8.50 -8.52 -8.54 -8.57 -8.63 -8.55 -8.46 -8.40 -8.33 -8.24 -8.19 -8.13 -8.08 -8.04 -7.98 -7.93 -7.91 -7.99 -8.07 -8.15 -8.22 -8.30 -8.33 -8.32 -8.25 -8.20 -8.16 -8.12 -8.08 -8.06 -8.04 -8.03 -8.00 -7.98 -7.96 -7.94
-9999.00 -9999.00 -9999.00 -9999.00 -9999.00 -9999.00 -9999.00 -9999.00 -9999.00 -9999.00 -9999.00 -9999.00 -9999.00 -9999.00 -9999.00 -9999.00 -9999.00 -9999.00 -9999.00 -9999.00 -9999.00 -9999.00 -9999.00 -9999.00 -9999.00 -9999.00 -9999.00 -9999.00 -9999.00 -9999.00 -9999.00 -9999.00 -9999.00 -9999.00 -9999.00 -9999.00 -9999.00 -9999.00 -9999.00 -9999.00 -9999.00 -9999.00 -9999.00 -9999.00 -9999.00 -9999.00 -9999.00 -9999.00 -9999.00 -9999.00 -9999.00 -9999.00 -9999.00 -9999.00 -9999.00 -9999.00 -9999.00 -9999.00 -9999.00 -9999.00 -9999.00 -9999.00 -9999.00 -9999.00 -9999.00 -9999.00 -9999.00 -9999.00 -9999.00 -9999.00 -9999.00 -9999.00 -9999.00 -9999.00 -9999.00 -9999.00 -9999.00 -9999.00 -9999.00 -9999.00 -9999.00 -9999.00 -9999.00 -9999.00 -9999.00 -9999.00 -9999.00 -9999.00 -9999.00 -9999.00 -9999.00 -9999.00 -9999.00 -9999.00 -9999.00 -9999.00 -9999.00 -9999.00 -9999.00 -9999.00 -9999.00 -9999.00 -9999.00 -9999.00 -9999.00 -9999.00 -9999.00 -9999.00 -9999.00 -9999.00 -9999.00 -9999.00 -9999.00 -9999.00 -9999.00 -9999.00 -9999.00 -9999.00 -9999.00 -9999.00 -9999.00 -9999.00 -9999.00 -9999.00 -9999.00 -9999.00 -9999.00 -9999.00 -9999.00 -9999.00 -9999.00 -9999.00 -9999.00 -9999.00 -9999.00 -9999.00 -9999.00 -9999.00 -9999.00 -9999.00 -9999.00 -9999.00 -9999.00 -9999.00 -9999.00 -9999.00 -17.95 -17.80 -17.69 -17.58 -17.48 -17.33 -17.19 -17.06 -16.93 -16.79 -16.68 -16.51 -16.36 -16.25 -16.14 -16.01 -15.89 -15.76 -15.68 -15.57 -15.46 -15.37 -15.30 -15.18 -15.10 -15.01 -14.88 -14.78 -14.69 -14.60 -14.51 -14.48 -14.43 -14.35 -14.33 -14.29 -14.23 -14.18 -14.10 -14.04 -14.00 -13.93 -13.94 -13.98 -13.98 -13.93 -13.91 -13.88 -13.79 -13.74 -13.74 -13.72 -13.72 -13.70 -13.73 -13.71 -13.72 -13.75 -13.72 -13.69 -13.67 -13.62 -13.56 -13.51 -13.43 -13.41 -13.36 -13.32 -13.28 -13.26 -13.22 -13.15 -13.08 -13.04 -12.99 -12.92 -12.87 -12.80 -12.77 -12.75 -12.70 -12.69 -12.67 -12.67 -12.66 -12.68 -12.46 -12.38 -12.31 -12.22 -12.04 -11.84 -11.60 -11.40 -11.26 -11.15 -11.01 -10.86 -10.81 -10.75 -10.60 -10.41 -10.44 -10.26 -10.04 -10.01 -10.05 -9.96 -9.92 -9.93 -9.92 -9.94 -9.76 -9.69 -9.70 -9.66 -9.56 -9.55 -9.61 -9.49 -9.45 -9.44 -9.42 -9.31 -9.27 -9.15 -9.07 -8.93 -8.73 -8.73 -8.60 -8.64 -8.59 -8.58 -8.59 -8.59 -8.56 -8.54 -8.51 -8.44 -8.14 -7.98 -7.98 -8.00 -7.84 -7.80 -7.74 -7.61 -7.45 -7.38 -7.43 -7.36 -7.36 -7.43 -7.20 -7.20 -7.23 -7.03 -7.04 -7.04 -7.05 -7.00 -7.18 -7.17 -7.28 -7.47 -7.51 -7.66 -7.71 -7.81 -7.87 -7.96 -7.98 -8.01 -8.05 -8.09 -8.20 -8.23 -8.21 -8.25 -8.31 -8.34 -8.38 -8.48 -8.48 -8.47 -8.43 -8.38 -8.36 -8.34 -8.31 -8.26 -8.27 -8.30 -8.31 -8.35 -8.41 -8.46 -8.43 -8.37 -8.28 -8.19 -8.07 -7.92 -7.82 -7.80 -7.81 -7.79 -7.79 -7.82 -7.90 -7.94 -7.97 -7.99 -8.00 -8.02 -8.01 -7.99 -7.97 -7.97 -7.96 -7.96 -7.95 -7.93 -7.90 -7.87 -7.86 -7.86 -7.86
-9999.00 -9999.00 -9999.00 -9999.00 -9999.00 -9999.00 -9999.00 -9999.00 -9999.00 -9999.00 -9999.00 -9999.00 -9999.00 -9999.00 -9999.00 -9999.00 -9999.00 -9999.00 -9999.00 -9999.00 -9999.00 -9999.00 -9999.00 -9999.00 -9999.00 -9999.00 -9999.00 -9999.00 -9999.00 -9999.00 -9999.00 -9999.00 -9999.00 -9999.00 -9999.00 -9999.00 -9999.00 -9999.00 -9999.00 -9999.00 -9999.00 -9999.00 -9999.00 -9999.00 -9999.00 -9999.00 -9999.00 -9999.00 -9999.00 -9999.00 -9999.00 -9999.00 -9999.00 -9999.00 -9999.00 -9999.00 -9999.00 -9999.00 -9999.00 -9999.00 -9999.00 -9999.00 -9999.00 -9999.00 -9999.00 -9999.00 -9999.00 -9999.00 -9999.00 -9999.00 -9999.00 -9999.00 -9999.00 -9999.00 -9999.00 -9999.00 -9999.00 -9999.00 -9999.00 -9999.00 -9999.00 -9999.00 -9999.00 -9999.00 -9999.00 -9999.00 -9999.00 -9999.00 -9999.00 -9999.00 -9999.00 -9999.00 -9999.00 -9999.00 -9999.00 -9999.00 -9999.00 -9999.00 -9999.00 -9999.00 -9999.00 -9999.00 -9999.00 -9999.00 -9999.00 -9999.00 -9999.00 -9999.00 -9999.00 -9999.00 -9999.00 -9999.00 -9999.00 -9999.00 -9999.00 -9999.00 -9999.00 -9999.00 -9999.00 -9999.00 -9999.00 -9999.00 -9999.00 -9999.00 -9999.00 -9999.00 -9999.00 -9999.00 -9999.00 -9999.00 -9999.00 -9999.00 -9999.00 -9999.00 -9999.00 -9999.00 -9999.00 -9999.00 -9999.00 -9999.00 -9999.00 -9999.00 -9999.00 -9999.00 -9999.00 -17.96 -17.80 -17.65 -17.47 -17.36 -17.22 -17.08 -16.94 -16.78 -16.61 -16.51 -16.40 -16.25 -16.12 -15.99 -15.88 -15.79 -15.69 -15.58 -15.49 -15.40 -15.28 -15.18 -15.05 -14.94 -14.87 -14.81 -14.69 -14.59 -14.47 -14.40 -14.36 -14.28 -14.25 -14.20 -14.22 -14.15 -14.11 -14.03 -13.97 -13.91 -13.84 -13.80 -13.84 -13.85 -13.85 -13.86 -13.80 -13.72 -13.65 -13.66 -13.67 -13.68 -13.71 -13.65 -13.63 -13.69 -13.64 -13.64 -13.64 -13.59 -13.55 -13.47 -13.41 -13.36 -13.35 -13.29 -13.24 -13.22 -13.18 -13.14 -13.09 -13.04 -13.02 -12.95 -12.89 -12.85 -12.79 -12.77 -12.72 -12.69 -12.67 -12.66 -12.65 -12.61 -12.56 -12.36 -12.21 -12.13 -11.99 -11.81 -11.59 -11.33 -11.21 -11.03 -10.90 -10.72 -10.64 -10.61 -10.52 -10.40 -10.21 -10.10 -9.80 -9.58 -9.36 -9.38 -9.54 -9.57 -9.14 -9.38 -9.55 -9.44 -9.13 -9.24 -9.30 -9.30 -9.22 -9.20 -9.18 -8.99 -9.06 -9.05 -9.02 -8.97 -8.93 -8.87 -8.78 -8.62 -8.50 -8.41 -8.32 -8.32 -8.15 -8.16 -8.19 -8.22 -8.23 -8.20 -7.99 -7.95 -7.80 -7.53 -7.19 -7.18 -7.37 -7.36 -7.40 -7.30 -7.21 -7.16 -7.10 -7.00 -6.90 -6.84 -6.83 -6.86 -6.77 -6.68 -6.60 -6.64 -6.62 -6.58 -6.80 -6.82 -6.88 -7.04 -7.13 -7.26 -7.39 -7.42 -7.50 -7.63 -7.61 -7.65 -7.69 -7.78 -7.88 -7.91 -7.89 -7.93 -8.02 -8.10 -8.19 -8.22 -8.27 -8.22 -8.21 -8.16 -8.12 -8.08 -8.04 -8.00 -8.00 -8.05 -8.13 -8.21 -8.25 -8.32 -8.29 -8.20 -8.08 -7.98 -7.87 -7.73 -7.65 -7.67 -7.67 -7.70 -7.72 -7.74 -7.75 -7.77 -7.79 -7.82 -7.84 -7.85 -7.84 -7.82 -7.80 -7.79 -7.79 -7.78 -7.78 -7.78 -7.78 -7.77 -7.77 -7.78 -7.78
-9999.00 -9999.00 -9999.00 -9999.00 -9999.00 -9999.00 -9999.00 -9999.00 -9999.00 -9999.00 -9999.00 -9999.00 -9999.00 -9999.00 -9999.00 -9999.00 -9999.00 -9999.00 -9999.00 -9999.00 -9999.00 -9999.00 -9999.00 -9999.00 -9999.00 -9999.00 -9999.00 -9999.00 -9999.00 -9999.00 -9999.00 -9999.00 -9999.00 -9999.00 -9999.00 -9999.00 -9999.00 -9999.00 -9999.00 -9999.00 -9999.00 -9999.00 -9999.00 -9999.00 -9999.00 -9999.00 -9999.00 -9999.00 -9999.00 -9999.00 -9999.00 -9999.00 -9999.00 -9999.00 -9999.00 -9999.00 -9999.00 -9999.00 -9999.00 -9999.00 -9999.00 -9999.00 -9999.00 -9999.00 -9999.00 -9999.00 -9999.00 -9999.00 -9999.00 -9999.00 -9999.00 -9999.00 -9999.00 -9999.00 -9999.00 -9999.00 -9999.00 -9999.00 -9999.00 -9999.00 -9999.00 -9999.00 -9999.00 -9999.00 -9999.00 -9999.00 -9999.00 -9999.00 -9999.00 -9999.00 -9999.00 -9999.00 -9999.00 -9999.00 -9999.00 -9999.00 -9999.00 -9999.00 -9999.00 -9999.00 -9999.00 -9999.00 -9999.00 -9999.00 -9999.00 -9999.00 -9999.00 -9999.00 -9999.00 -9999.00 -9999.00 -9999.00 -9999.00 -9999.00 -9999.00 -9999.00 -9999.00 -9999.00 -9999.00 -9999.00 -9999.00 -9999.00 -9999.00 -9999.00 -9999.00 -9999.00 -9999.00 -9999.00 -9999.00 -9999.00 -9999.00 -9999.00 -9999.00 -9999.00 -9999.00 -9999.00 -9999.00 -9999.00 -9999.00 -9999.00 -9999.00 -9999.00 -9999.00 -9999.00 -18.02 -17.83 -17.63 -17.47 -17.30 -17.13 -16.94 -16.80 -16.69 -16.56 -16.39 -16.29 -16.14 -16.02 -15.90 -15.78 -15.69 -15.61 -15.47 -15.38 -15.26 -15.11 -15.07 -14.97 -14.84 -14.75 -14.67 -14.59 -14.49 -14.42 -14.32 -14.25 -14.14 -14.09 -14.05 -14.07 -14.04 -14.04 -13.94 -13.92 -13.85 -13.79 -13.77 -13.73 -13.73 -13.75 -13.74 -13.72 -13.65 -13.55 -13.54 -13.57 -13.64 -13.63 -13.57 -13.56 -13.55 -13.54 -13.59 -13.59 -13.55 -13.49 -13.40 -13.33 -13.30 -13.27 -13.22 -13.17 -13.14 -13.11 -13.06 -13.02 -12.97 -12.93 -12.88 -12.85 -12.82 -12.77 -12.74 -12.72 -12.65 -12.57 -12.54 -12.54 -12.54 -12.46 -12.26 -12.05 -11.94 -11.81 -11.61 -11.33 -11.14 -10.93 -10.81 -10.60 -10.29 -10.25 -10.13 -9.87 -9.77 -9.86 -9.53 -9.18 -9.03 -8.84 -8.56 -8.50 -8.49 -8.34 -8.25 -8.52 -8.78 -8.45 -8.35 -8.51 -8.73 -8.81 -8.76 -8.81 -8.54 -8.47 -8.58 -8.68 -8.65 -8.62 -8.60 -8.50 -8.41 -8.30 -8.20 -8.11 -7.97 -7.71 -7.80 -7.76 -7.69 -7.69 -7.66 -7.62 -7.48 -7.44 -7.29 -7.09 -6.88 -6.67 -6.73 -6.84 -6.94 -6.96 -6.98 -6.99 -6.76 -6.62 -6.50 -6.57 -6.48 -6.49 -6.38 -6.31 -6.27 -6.26 -6.24 -6.19 -6.29 -6.34 -6.46 -6.62 -6.71 -6.80 -6.92 -6.94 -7.17 -7.23 -7.29 -7.32 -7.39 -7.48 -7.48 -7.50 -7.62 -7.64 -7.72 -7.82 -7.89 -7.96 -8.02 -7.99 -7.93 -7.90 -7.86 -7.84 -7.83 -7.83 -7.85 -7.92 -7.97 -8.02 -8.06 -8.12 -8.16 -8.05 -7.93 -7.81 -7.68 -7.59 -7.54 -7.59 -7.60 -7.61 -7.60 -7.57 -7.60 -7.62 -7.66 -7.69 -7.72 -7.75 -7.77 -7.75 -7.72 -7.70 -7.66 -7.63 -7.60 -7.58 -7.56 -7.58 -7.59 -7.58 -7.57
-9999.00 -9999.00 -9999.00 -9999.00 -9999.00 -9999.00 -9999.00 -9999.00 -9999.00 -9999.00 -9999.00 -9999.00 -9999.00 -9999.00 -9999.00 -9999.00 -9999.00 -9999.00 -9999.00 -9999.00 -9999.00 -9999.00 -9999.00 -9999.00 -9999.00 -9999.00 -9999.00 -9999.00 -9999.00 -9999.00 -9999.00 -9999.00 -9999.00 -9999.00 -9999.00 -9999.00 -9999.00 -9999.00 -9999.00 -9999.00 -9999.00 -9999.00 -9999.00 -9999.00 -9999.00 -9999.00 -9999.00 -9999.00 -9999.00 -9999.00 -9999.00 -9999.00 -9999.00 -9999.00 -9999.00 -9999.00 -9999.00 -9999.00 -9999.00 -9999.00 -9999.00 -9999.00 -9999.00 -9999.00 -9999.00 -9999.00 -9999.00 -9999.00 -9999.00 -9999.00 -9999.00 -9999.00 -9999.00 -9999.00 -9999.00 -9999.00 -9999.00 -9999.00 -9999.00 -9999.00 -9999.00 -9999.00 -9999.00 -9999.00 -9999.00 -9999.00 -9999.00 -9999.00 -9999.00 -9999.00 -9999.00 -9999.00 -9999.00 -9999.00 -9999.00 -9999.00 -9999.00 -9999.00 -9999.00 -9999.00 -9999.00 -9999.00 -9999.00 -9999.00 -9999.00 -9999.00 -9999.00 -9999.00 -9999.00 -9999.00 -9999.00 -9999.00 -9999.00 -9999.00 -9999.00 -9999.00 -9999.00 -9999.00 -9999.00 -9999.00 -9999.00 -9999.00 -9999.00 -9999.00 -9999.00 -9999.00 -9999.00 -9999.00 -9999.00 -9999.00 -9999.00 -9999.00 -9999.00 -9999.00 -9999.00 -9999.00 -9999.00 -9999.00 -9999.00 -9999.00 -9999.00 -9999.00 -9999.00 -18.09 -17.86 -17.66 -17.45 -17.24 -17.06 -16.83 -16.63 -16.51 -16.42 -16.28 -16.17 -16.04 -15.93 -15.81 -15.68 -15.57 -15.49 -15.36 -15.24 -15.10 -15.03 -14.92 -14.84 -14.82 -14.71 -14.60 -14.52 -14.44 -14.36 -14.24 -14.16 -14.06 -13.91 -13.90 -13.92 -13.89 -13.87 -13.88 -13.86 -13.79 -13.76 -13.72 -13.69 -13.67 -13.63 -13.62 -13.61 -13.55 -13.45 -13.44 -13.46 -13.51 -13.49 -13.46 -13.44 -13.42 -13.41 -13.44 -13.47 -13.53 -13.49 -13.38 -13.30 -13.22 -13.20 -13.16 -13.12 -13.09 -13.02 -12.99 -12.95 -12.90 -12.86 -12.86 -12.83 -12.80 -12.73 -12.71 -12.64 -12.57 -12.49 -12.43 -12.39 -12.39 -12.29 -12.27 -12.05 -11.77 -11.57 -11.33 -11.06 -10.71 -10.52 -10.40 -9.95 -9.52 -9.36 -9.15 -8.84 -8.67 -8.53 -8.52 -8.09 -7.82 -7.30 -7.06 -7.06 -7.10 -7.08 -7.03 -7.03 -7.20 -7.24 -7.42 -7.38 -7.59 -7.90 -7.99 -7.95 -8.08 -7.84 -7.85 -7.92 -8.08 -8.20 -8.11 -8.07 -8.05 -7.93 -7.79 -7.69 -7.51 -7.32 -7.28 -7.16 -7.09 -7.12 -7.08 -7.16 -7.05 -7.00 -6.84 -6.60 -6.15 -5.97 -6.10 -6.30 -6.47 -6.51 -6.54 -6.56 -6.55 -6.43 -6.30 -6.21 -6.19 -6.11 -6.14 -6.11 -6.00 -5.98 -5.92 -5.93 -5.84 -5.90 -6.01 -6.07 -6.15 -6.28 -6.37 -6.47 -6.52 -6.70 -6.80 -6.89 -6.97 -7.05 -7.04 -7.08 -7.16 -7.32 -7.39 -7.44 -7.50 -7.56 -7.65 -7.82 -7.79 -7.74 -7.70 -7.69 -7.64 -7.59 -7.60 -7.62 -7.69 -7.77 -7.82 -7.88 -7.92 -7.98 -7.89 -7.81 -7.75 -7.68 -7.63 -7.56 -7.55 -7.53 -7.50 -7.49 -7.46 -7.49 -7.53 -7.57 -7.60 -7.63 -7.65 -7.66 -7.62 -7.57 -7.52 -7.48 -7.44 -7.38 -7.38 -7.38 -7.38 -7.37 -7.37 -7.36
-9999.00 -9999.00 -9999.00 -9999.00 -9999.00 -9999.00 -9999.00 -9999.00 -9999.00 -9999.00 -9999.00 -9999.00 -9999.00 -9999.00 -9999.00 -9999.00 -9999.00 -9999.00 -9999.00 -9999.00 -9999.00 -9999.00 -9999.00 -9999.00 -9999.00 -9999.00 -9999.00 -9999.00 -9999.00 -9999.00 -9999.00 -9999.00 -9999.00 -9999.00 -9999.00 -9999.00 -9999.00 -9999.00 -9999.00 -9999.00 -9999.00 -9999.00 -9999.00 -9999.00 -9999.00 -9999.00 -9999.00 -9999.00 -9999.00 -9999.00 -9999.00 -9999.00 -9999.00 -9999.00 -9999.00 -9999.00 -9999.00 -9999.00 -9999.00 -9999.00 -9999.00 -9999.00 -9999.00 -9999.00 -9999.00 -9999.00 -9999.00 -9999.00 -9999.00 -9999.00 -9999.00 -9999.00 -9999.00 -9999.00 -9999.00 -9999.00 -9999.00 -9999.00 -9999.00 -9999.00 -9999.00 -9999.00 -9999.00 -9999.00 -9999.00 -9999.00 -9999.00 -9999.00 -9999.00 -9999.00 -9999.00 -9999.00 -9999.00 -9999.00 -9999.00 -9999.00 -9999.00 -9999.00 -9999.00 -9999.00 -9999.00 -9999.00 -9999.00 -9999.00 -9999.00 -9999.00 -9999.00 -9999.00 -9999.00 -9999.00 -9999.00 -9999.00 -9999.00 -9999.00 -9999.00 -9999.00 -9999.00 -9999.00 -9999.00 -9999.00 -9999.00 -9999.00 -9999.00 -9999.00 -9999.00 -9999.00 -9999.00 -9999.00 -9999.00 -9999.00 -9999.00 -9999.00 -9999.00 -9999.00 -9999.00 -9999.00 -9999.00 -9999.00 -9999.00 -9999.00 -9999.00 -9999.00 -18.11 -17.90 -17.68 -17.44 -17.20 -17.01 -16.84 -16.60 -16.38 -16.28 -16.15 -16.06 -15.96 -15.81 -15.70 -15.57 -15.44 -15.34 -15.25 -15.09 -14.98 -14.89 -14.82 -14.76 -14.71 -14.65 -14.57 -14.48 -14.40 -14.28 -14.20 -14.10 -13.99 -13.89 -13.81 -13.76 -13.74 -13.70 -13.71 -13.71 -13.72 -13.73 -13.68 -13.65 -13.62 -13.59 -13.56 -13.54 -13.51 -13.46 -13.38 -13.34 -13.38 -13.37 -13.36 -13.34 -13.27 -13.25 -13.29 -13.33 -13.39 -13.41 -13.39 -13.30 -13.24 -13.18 -13.10 -13.08 -13.03 -13.00 -12.94 -12.88 -12.87 -12.84 -12.82 -12.77 -12.76 -12.74 -12.67 -12.59 -12.49 -12.41 -12.34 -12.29 -12.25 -12.18 -12.08 -11.83 -11.58 -11.29 -11.02 -10.54 -10.08 -9.78 -9.32 -8.85 -8.51 -8.21 -7.94 -7.66 -7.42 -7.32 -7.23 -6.85 -6.53 -6.05 -5.69 -5.46 -5.67 -5.69 -5.67 -5.70 -5.68 -5.88 -6.09 -6.14 -6.32 -6.39 -6.56 -6.49 -6.48 -6.80 -6.93 -6.89 -7.03 -7.19 -7.20 -7.08 -7.04 -7.09 -7.01 -6.98 -7.06 -6.91 -6.66 -6.61 -6.45 -6.44 -6.46 -6.46 -6.45 -6.38 -6.31 -6.22 -5.82 -5.53 -5.51 -5.72 -5.87 -6.13 -6.10 -6.09 -6.08 -6.10 -6.01 -5.80 -5.81 -5.76 -5.74 -5.83 -5.75 -5.68 -5.60 -5.65 -5.63 -5.63 -5.59 -5.68 -5.75 -5.79 -5.86 -5.95 -6.01 -6.13 -6.22 -6.35 -6.48 -6.57 -6.58 -6.68 -6.66 -6.83 -6.91 -7.01 -7.07 -7.13 -7.22 -7.38 -7.49 -7.40 -7.40 -7.40 -7.40 -7.40 -7.42 -7.44 -7.46 -7.54 -7.59 -7.66 -7.72 -7.79 -7.84 -7.76 -7.69 -7.63 -7.58 -7.54 -7.51 -7.49 -7.50 -7.46 -7.45 -7.45 -7.46 -7.47 -7.51 -7.54 -7.54 -7.56 -7.57 -7.50 -7.43 -7.35 -7.27 -7.20 -7.13 -7.14 -7.14 -7.16 -7.18 -7.19 -7.21
-9999.00 -9999.00 -9999.00 -9999.00 -9999.00 -9999.00 -9999.00 -9999.00 -9999.00 -9999.00 -9999.00 -9999.00 -9999.00 -9999.00 -9999.00 -9999.00 -9999.00 -9999.00 -9999.00 -9999.00 -9999.00 -9999.00 -9999.00 -9999.00 -9999.00 -9999.00 -9999.00 -9999.00 -9999.00 -9999.00 -9999.00 -9999.00 -9999.00 -9999.00 -9999.00 -9999.00 -9999.00 -9999.00 -9999.00 -9999.00 -9999.00 -9999.00 -9999.00 -9999.00 -9999.00 -9999.00 -9999.00 -9999.00 -9999.00 -9999.00 -9999.00 -9999.00 -9999.00 -9999.00 -9999.00 -9999.00 -9999.00 -9999.00 -9999.00 -9999.00 -9999.00 -9999.00 -9999.00 -9999.00 -9999.00 -9999.00 -9999.00 -9999.00 -9999.00 -9999.00 -9999.00 -9999.00 -9999.00 -9999.00 -9999.00 -9999.00 -9999.00 -9999.00 -9999.00 -9999.00 -9999.00 -9999.00 -9999.00 -9999.00 -9999.00 -9999.00 -9999.00 -9999.00 -9999.00 -9999.00 -9999.00 -9999.00 -9999.00 -9999.00 -9999.00 -9999.00 -9999.00 -9999.00 -9999.00 -9999.00 -9999.00 -9999.00 -9999.00 -9999.00 -9999.00 -9999.00 -9999.00 -9999.00 -9999.00 -9999.00 -9999.00 -9999.00 -9999.00 -9999.00 -9999.00 -9999.00 -9999.00 -9999.00 -9999.00 -9999.00 -9999.00 -9999.00 -9999.00 -9999.00 -9999.00 -9999.00 -9999.00 -9999.00 -9999.00 -9999.00 -9999.00 -9999.00 -9999.00 -9999.00 -9999.00 -9999.00 -9999.00 -9999.00 -9999.00 -9999.00 -9999.00 -18.13 -17.90 -17.67 -17.46 -17.20 -17.00 -16.84 -16.61 -16.39 -16.22 -16.01 -15.92 -15.82 -15.69 -15.54 -15.43 -15.33 -15.22 -15.11 -15.00 -14.85 -14.80 -14.76 -14.66 -14.61 -14.54 -14.51 -14.43 -14.38 -14.23 -14.17 -14.07 -13.97 -13.88 -13.77 -13.67 -13.58 -13.55 -13.53 -13.53 -13.55 -13.61 -13.60 -13.59 -13.57 -13.54 -13.51 -13.48 -13.49 -13.47 -13.38 -13.34 -13.28 -13.26 -13.26 -13.24 -13.19 -13.14 -13.15 -13.19 -13.24 -13.27 -13.27 -13.35 -13.27 -13.21 -13.11 -13.03 -13.01 -12.98 -12.94 -12.91 -12.86 -12.80 -12.77 -12.74 -12.70 -12.63 -12.57 -12.51 -12.47 -12.34 -12.27 -12.24 -12.12 -12.03 -11.96 -11.70 -11.37 -10.68 -10.13 -9.60 -9.17 -8.66 -8.11 -7.69 -7.33 -7.16 -6.73 -6.44 -6.17 -6.04 -5.84 -5.88 -5.42 -5.01 -4.74 -4.64 -4.50 -4.38 -4.58 -4.71 -4.72 -4.75 -4.92 -5.09 -5.04 -4.94 -5.05 -5.05 -5.29 -5.24 -5.40 -5.52 -5.70 -5.71 -5.84 -5.82 -5.89 -5.96 -6.02 -5.89 -5.96 -6.10 -5.98 -5.90 -5.84 -5.78 -5.76 -5.74 -5.74 -5.74 -5.70 -5.69 -5.68 -5.34 -5.16 -5.05 -5.29 -5.50 -5.57 -5.58 -5.57 -5.62 -5.53 -5.40 -5.39 -5.38 -5.31 -5.35 -5.50 -5.38 -5.31 -5.51 -5.41 -5.36 -5.36 -5.34 -5.34 -5.39 -5.40 -5.41 -5.48 -5.52 -5.66 -5.77 -5.91 -6.08 -6.12 -6.16 -6.21 -6.34 -6.45 -6.51 -6.67 -6.73 -6.82 -6.89 -7.01 -7.10 -7.15 -7.16 -7.19 -7.18 -7.18 -7.21 -7.22 -7.25 -7.31 -7.37 -7.41 -7.49 -7.54 -7.59 -7.58 -7.55 -7.53 -7.51 -7.48 -7.45 -7.47 -7.47 -7.46 -7.44 -7.41 -7.37 -7.37 -7.35 -7.39 -7.40 -7.41 -7.36 -7.27 -7.18 -7.08 -6.99 -6.90 -6.80 -6.86 -6.93 -6.99 -7.05 -7.12 -7.19
-9999.00 -9999.00 -9999.00 -9999.00 -9999.00 -9999.00 -9999.00 -9999.00 -9999.00 -9999.00 -9999.00 -9999.00 -9999.00 -9999.00 -9999.00 -9999.00 -9999.00 -9999.00 -9999.00 -9999.00 -9999.00 -9999.00 -9999.00 -9999.00 -9999.00 -9999.00 -9999.00 -9999.00 -9999.00 -9999.00 -9999.00 -9999.00 -9999.00 -9999.00 -9999.00 -9999.00 -9999.00 -9999.00 -9999.00 -9999.00 -9999.00 -9999.00 -9999.00 -9999.00 -9999.00 -9999.00 -9999.00 -9999.00 -9999.00 -9999.00 -9999.00 -9999.00 -9999.00 -9999.00 -9999.00 -9999.00 -9999.00 -9999.00 -9999.00 -9999.00 -9999.00 -9999.00 -9999.00 -9999.00 -9999.00 -9999.00 -9999.00 -9999.00 -9999.00 -9999.00 -9999.00 -9999.00 -9999.00 -9999.00 -9999.00 -9999.00 -9999.00 -9999.00 -9999.00 -9999.00 -9999.00 -9999.00 -9999.00 -9999.00 -9999.00 -9999.00 -9999.00 -9999.00 -9999.00 -9999.00 -9999.00 -9999.00 -9999.00 -9999.00 -9999.00 -9999.00 -9999.00 -9999.00 -9999.00 -9999.00 -9999.00 -9999.00 -9999.00 -9999.00 -9999.00 -9999.00 -9999.00 -9999.00 -9999.00 -9999.00 -9999.00 -9999.00 -9999.00 -9999.00 -9999.00 -9999.00 -9999.00 -9999.00 -9999.00 -9999.00 -9999.00 -9999.00 -9999.00 -9999.00 -9999.00 -9999.00 -9999.00 -9999.00 -9999.00 -9999.00 -9999.00 -9999.00 -9999.00 -9999.00 -9999.00 -9999.00 -9999.00 -9999.00 -9999.00 -9999.00 -18.15 -17.89 -17.65 -17.41 -17.19 -17.01 -16.78 -16.60 -16.40 -16.21 -16.03 -15.82 -15.67 -15.58 -15.45 -15.31 -15.22 -15.12 -15.01 -14.91 -14.79 -14.73 -14.61 -14.54 -14.45 -14.41 -14.38 -14.35 -14.30 -14.21 -14.14 -14.03 -13.91 -13.77 -13.72 -13.64 -13.51 -13.43 -13.36 -13.39 -13.38 -13.46 -13.47 -13.50 -13.50 -13.48 -13.44 -13.42 -13.41 -13.39 -13.36 -13.35 -13.28 -13.23 -13.20 -13.14 -13.13 -13.12 -13.08 -13.07 -13.11 -13.10 -13.12 -13.18 -13.25 -13.22 -13.14 -13.06 -13.01 -12.98 -13.01 -12.94 -12.85 -12.82 -12.78 -12.70 -12.63 -12.54 -12.48 -12.39 -12.37 -12.22 -12.22 -12.13 -12.01 -11.91 -11.82 -11.60 -10.98 -10.13 -9.19 -8.45 -7.90 -7.38 -6.86 -6.47 -6.33 -6.21 -5.99 -5.43 -5.21 -5.28 -5.08 -4.86 -4.67 -4.46 -4.25 -4.11 -4.04 -3.96 -3.90 -3.92 -4.06 -4.16 -4.20 -4.10 -4.12 -4.11 -3.93 -4.11 -4.34 -4.37 -4.27 -4.30 -4.44 -4.44 -4.58 -4.74 -4.85 -4.88 -4.89 -4.90 -4.88 -4.96 -5.08 -5.20 -5.08 -4.97 -5.04 -5.02 -5.09 -5.09 -5.10 -5.13 -5.08 -5.08 -5.01 -4.87 -4.85 -4.95 -5.02 -5.09 -5.18 -5.14 -5.05 -5.06 -4.99 -4.88 -4.82 -4.80 -4.88 -4.98 -5.02 -5.05 -5.11 -5.20 -5.16 -5.09 -5.07 -5.02 -5.07 -4.98 -5.03 -5.08 -5.16 -5.22 -5.30 -5.42 -5.61 -5.65 -5.73 -5.82 -5.87 -5.98 -6.10 -6.21 -6.30 -6.42 -6.52 -6.63 -6.80 -6.81 -6.81 -6.83 -6.86 -6.89 -6.92 -6.98 -7.00 -7.07 -7.12 -7.19 -7.26 -7.34 -7.41 -7.45 -7.43 -7.43 -7.44 -7.46 -7.47 -7.47 -7.42 -7.38 -7.30 -7.30 -7.32 -7.30 -7.30 -7.31 -7.31 -7.30 -7.25 -7.15 -7.05 -6.95 -6.85 -6.75 -6.65 -6.73 -6.81 -6.89 -6.97 -7.05 -7.13
-9999.00 -9999.00 -9999.00 -9999.00 -9999.00 -9999.00 -9999.00 -9999.00 -9999.00 -9999.00 -9999.00 -9999.00 -9999.00 -9999.00 -9999.00 -9999.00 -9999.00 -9999.00 -9999.00 -9999.00 -9999.00 -9999.00 -9999.00 -9999.00 -9999.00 -9999.00 -9999.00 -9999.00 -9999.00 -9999.00 -9999.00 -9999.00 -9999.00 -9999.00 -9999.00 -9999.00 -9999.00 -9999.00 -9999.00 -9999.00 -9999.00 -9999.00 -9999.00 -9999.00 -9999.00 -9999.00 -9999.00 -9999.00 -9999.00 -9999.00 -9999.00 -9999.00 -9999.00 -9999.00 -9999.00 -9999.00 -9999.00 -9999.00 -9999.00 -9999.00 -9999.00 -9999.00 -9999.00 -9999.00 -9999.00 -9999.00 -9999.00 -9999.00 -9999.00 -9999.00 -9999.00 -9999.00 -9999.00 -9999.00 -9999.00 -9999.00 -9999.00 -9999.00 -9999.00 -9999.00 -9999.00 -9999.00 -9999.00 -9999.00 -9999.00 -9999.00 -9999.00 -9999.00 -9999.00 -9999.00 -9999.00 -9999.00 -9999.00 -9999.00 -9999.00 -9999.00 -9999.00 -9999.00 -9999.00 -9999.00 -9999.00 -9999.00 -9999.00 -9999.00 -9999.00 -9999.00 -9999.00 -9999.00 -9999.00 -9999.00 -9999.00 -9999.00 -9999.00 -9999.00 -9999.00 -9999.00 -9999.00 -9999.00 -9999.00 -9999.00 -9999.00 -9999.00 -9999.00 -9999.00 -9999.00 -9999.00 -9999.00 -9999.00 -9999.00 -9999.00 -9999.00 -9999.00 -9999.00 -9999.00 -9999.00 -9999.00 -9999.00 -9999.00 -9999.00 -18.20 -17.89 -17.62 -17.36 -17.13 -16.94 -16.74 -16.57 -16.38 -16.16 -16.00 -15.78 -15.64 -15.50 -15.36 -15.27 -15.13 -15.01 -14.91 -14.81 -14.71 -14.65 -14.50 -14.39 -14.29 -14.26 -14.25 -14.22 -14.17 -14.09 -14.04 -13.96 -13.87 -13.74 -13.63 -13.53 -13.42 -13.37 -13.34 -13.27 -13.24 -13.33 -13.32 -13.36 -13.38 -13.40 -13.37 -13.35 -13.31 -13.32 -13.29 -13.29 -13.28 -13.21 -13.17 -13.11 -13.10 -13.11 -13.02 -13.01 -13.01 -12.95 -12.98 -13.05 -13.11 -13.10 -13.14 -13.10 -13.02 -13.01 -12.98 -12.96 -12.91 -12.86 -12.82 -12.70 -12.59 -12.49 -12.39 -12.31 -12.22 -12.20 -12.12 -12.01 -11.90 -11.82 -11.67 -11.26 -10.37 -9.32 -8.45 -7.47 -6.70 -6.12 -5.74 -5.42 -5.37 -5.27 -5.15 -4.90 -4.77 -4.76 -4.82 -4.60 -4.37 -4.22 -4.11 -3.98 -3.85 -3.69 -3.68 -3.67 -3.55 -3.66 -3.75 -3.68 -3.61 -3.47 -3.52 -3.49 -3.42 -3.61 -3.63 -3.55 -3.52 -3.56 -3.59 -3.75 -3.85 -3.85 -3.90 -4.08 -4.08 -4.05 -4.04 -4.13 -4.03 -4.07 -4.20 -4.34 -4.39 -4.40 -4.56 -4.62 -4.65 -4.66 -4.63 -4.67 -4.63 -4.60 -4.60 -4.71 -4.70 -4.73 -4.76 -4.66 -4.53 -4.49 -4.39 -4.40 -4.31 -4.35 -4.50 -4.59 -4.56 -4.66 -4.80 -4.87 -4.80 -4.78 -4.76 -4.71 -4.68 -4.71 -4.73 -4.79 -4.84 -4.95 -5.04 -5.10 -5.20 -5.29 -5.41 -5.44 -5.56 -5.70 -5.80 -5.88 -5.97 -6.13 -6.28 -6.41 -6.46 -6.50 -6.53 -6.55 -6.60 -6.66 -6.71 -6.77 -6.79 -6.86 -6.93 -7.01 -7.08 -7.14 -7.21 -7.24 -7.26 -7.27 -7.30 -7.33 -7.33 -7.30 -7.28 -7.27 -7.25 -7.25 -7.22 -7.20 -7.19 -7.17 -7.17 -7.13 -7.06 -6.98 -6.91 -6.83 -6.76 -6.69 -6.75 -6.80 -6.86 -6.92 -6.97 -7.02
-9999.00 -9999.00 -9999.00 -9999.00 -9999.00 -9999.00 -9999.00 -9999.00 -9999.00 -9999.00 -9999.00 -9999.00 -9999.00 -9999.00 -9999.00 -9999.00 -9999.00 -9999.00 -9999.00 -9999.00 -9999.00 -9999.00 -9999.00 -9999.00 -9999.00 -9999.00 -9999.00 -9999.00 -9999.00 -9999.00 -9999.00 -9999.00 -9999.00 -9999.00 -9999.00 -9999.00 -9999.00 -9999.00 -9999.00 -9999.00 -9999.00 -9999.00 -9999.00 -9999.00 -9999.00 -9999.00 -9999.00 -9999.00 -9999.00 -9999.00 -9999.00 -9999.00 -9999.00 -9999.00 -9999.00 -9999.00 -9999.00 -9999.00 -9999.00 -9999.00 -9999.00 -9999.00 -9999.00 -9999.00 -9999.00 -9999.00 -9999.00 -9999.00 -9999.00 -9999.00 -9999.00 -9999.00 -9999.00 -9999.00 -9999.00 -9999.00 -9999.00 -9999.00 -9999.00 -9999.00 -9999.00 -9999.00 -9999.00 -9999.00 -9999.00 -9999.00 -9999.00 -9999.00 -9999.00 -9999.00 -9999.00 -9999.00 -9999.00 -9999.00 -9999.00 -9999.00 -9999.00 -9999.00 -9999.00 -9999.00 -9999.00 -9999.00 -9999.00 -9999.00 -9999.00 -9999.00 -9999.00 -9999.00 -9999.00 -9999.00 -9999.00 -9999.00 -9999.00 -9999.00 -9999.00 -9999.00 -9999.00 -9999.00 -9999.00 -9999.00 -9999.00 -9999.00 -9999.00 -9999.00 -9999.00 -9999.00 -9999.00 -9999.00 -9999.00 -9999.00 -9999.00 -9999.00 -9999.00 -9999.00 -9999.00 -9999.00 -9999.00 -9999.00 -18.13 -17.87 -17.59 -17.30 -17.06 -16.86 -16.67 -16.50 -16.33 -16.12 -15.92 -15.72 -15.61 -15.47 -15.30 -15.21 -15.07 -14.96 -14.84 -14.73 -14.63 -14.56 -14.40 -14.26 -14.18 -14.15 -14.11 -14.10 -14.04 -13.98 -13.95 -13.88 -13.80 -13.68 -13.57 -13.49 -13.43 -13.31 -13.27 -13.22 -13.17 -13.22 -13.19 -13.23 -13.25 -13.28 -13.27 -13.24 -13.22 -13.26 -13.24 -13.23 -13.20 -13.17 -13.14 -13.12 -13.08 -13.05 -12.96 -12.91 -12.93 -12.91 -12.90 -12.93 -12.95 -12.96 -12.98 -13.03 -13.06 -13.04 -12.98 -12.88 -12.87 -12.81 -12.79 -12.66 -12.54 -12.47 -12.35 -12.24 -12.17 -12.09 -12.02 -11.87 -11.76 -11.65 -11.44 -10.89 -9.77 -8.84 -7.39 -6.67 -5.78 -5.27 -4.90 -4.76 -4.58 -4.49 -4.48 -4.44 -4.44 -4.42 -4.39 -4.34 -4.21 -4.10 -4.07 -3.97 -3.78 -3.61 -3.62 -3.67 -3.53 -3.41 -3.43 -3.44 -3.37 -3.29 -3.18 -3.17 -3.21 -3.14 -3.11 -3.13 -3.14 -3.10 -3.11 -3.14 -3.04 -3.14 -3.18 -3.17 -3.28 -3.30 -3.28 -3.34 -3.38 -3.39 -3.47 -3.63 -3.72 -3.82 -3.95 -4.02 -4.14 -4.21 -4.23 -4.26 -4.30 -4.31 -4.31 -4.35 -4.36 -4.37 -4.34 -4.34 -4.22 -4.17 -4.12 -4.07 -4.09 -4.02 -4.01 -4.11 -4.05 -4.13 -4.29 -4.38 -4.44 -4.47 -4.45 -4.45 -4.45 -4.45 -4.43 -4.37 -4.43 -4.55 -4.52 -4.62 -4.70 -4.78 -4.87 -4.91 -5.00 -5.18 -5.24 -5.36 -5.44 -5.58 -5.71 -5.87 -5.99 -6.07 -6.19 -6.21 -6.28 -6.34 -6.39 -6.48 -6.49 -6.55 -6.60 -6.68 -6.75 -6.78 -6.89 -7.00 -7.03 -7.06 -7.08 -7.11 -7.15 -7.19 -7.18 -7.18 -7.16 -7.18 -7.19 -7.20 -7.16 -7.11 -7.09 -7.06 -7.01 -6.97 -6.93 -6.89 -6.85 -6.81 -6.76 -6.79 -6.81 -6.84 -6.86 -6.89 -6.91
