ncols	374
nrows	32
xllcorner	295750
yllcorner	131245
cellsize	5.00
NODATA_value	-9999.00
-9999.00 -9999.00 -9999.00 -9999.00 -9999.00 -9999.00 -9999.00 -9999.00 -9999.00 -9999.00 -9999.00 -9999.00 -9999.00 -9999.00 -9999.00 -9999.00 -9999.00 -9999.00 -9999.00 -9999.00 -9999.00 -9999.00 -9999.00 -9999.00 -9999.00 -9999.00 -9999.00 -9999.00 -9999.00 -9999.00 -9999.00 -9999.00 -9999.00 -9999.00 -9999.00 -9999.00 -9999.00 -9999.00 -9999.00 -9999.00 -9999.00 -9999.00 -9999.00 -9999.00 -9999.00 -9999.00 -9999.00 -9999.00 -9999.00 -9999.00 -9999.00 -9999.00 -9999.00 -9999.00 -9999.00 -9999.00 -9999.00 -9999.00 -9999.00 -9999.00 -9999.00 -9999.00 -9999.00 -16.42 -16.34 -16.22 -16.09 -15.97 -15.82 -15.64 -15.50 -15.34 -15.18 -14.99 -14.80 -14.54 -14.32 -14.09 -13.88 -13.76 -13.69 -13.59 -13.53 -13.65 -13.72 -13.70 -13.61 -13.53 -13.40 -13.25 -13.14 -13.01 -12.88 -12.78 -12.70 -12.64 -12.54 -12.45 -12.34 -12.26 -12.16 -12.08 -11.96 -11.85 -11.75 -11.64 -11.52 -11.41 -11.32 -11.24 -11.15 -11.03 -10.98 -10.89 -10.75 -10.65 -10.54 -10.44 -10.30 -10.17 -10.07 -9.94 -9.83 -9.75 -9.67 -9.57 -9.49 -9.41 -9.33 -9.25 -9.17 -9.11 -9.04 -8.95 -8.90 -8.83 -8.76 -8.72 -8.70 -8.66 -8.62 -8.60 -8.57 -8.53 -8.51 -8.51 -8.45 -8.40 -8.38 -8.29 -8.20 -8.20 -8.19 -8.15 -8.09 -7.97 -7.85 -7.43 -7.18 -6.65 -5.76 -4.84 -3.86 -3.43 -3.24 -3.13 -3.02 -2.88 -2.78 -2.55 -2.26 -1.98 -1.87 -1.70 -1.56 -1.42 -1.28 -1.19 -1.07 -0.95 -0.86 -0.89 -0.92 -0.85 -0.73 -0.77 -0.77 -0.77 -0.74 -0.72 -0.70 -0.74 -0.74 -0.75 -0.79 -0.83 -0.81 -0.81 -0.84 -0.78 -0.78 -0.80 -0.85 -0.87 -0.91 -0.96 -0.91 -1.01 -1.16 -1.22 -1.31 -1.38 -1.43 -1.49 -1.50 -1.53 -1.55 -1.58 -1.60 -1.61 -1.62 -1.64 -1.67 -1.70 -1.74 -1.79 -1.84 -1.88 -1.94 -1.95 -1.98 -1.97 -2.00 -2.02 -2.05 -2.06 -2.06 -2.08 -2.05 -2.07 -2.05 -2.04 -2.04 -2.03 -2.00 -1.98 -1.96 -1.96 -1.94 -1.91 -1.87 -1.88 -1.86 -1.84 -1.79 -1.68 -1.60 -1.46 -1.46 -1.42 -1.34 -1.28 -1.30 -1.20 -1.11 -0.99 -0.77 -0.75 -0.73 -0.70 -0.54 -0.54 -0.53 -0.50 -0.47 -0.34 -0.11 -0.12 -0.02 0.01 0.07 0.12 0.25 0.28 0.35 0.39 0.36 0.44 0.46 0.52 0.58 0.62 0.65 0.62 0.59 0.60 0.60 0.63 0.70 0.78 0.86 0.89 0.98 1.16 1.24 1.45 1.71 1.92 2.29 2.74 2.95 3.40 4.03 3.78 3.55 3.78 3.61 3.72 3.66 3.62 3.70 3.91 4.07 4.07 3.70 3.66 -9999.00 -9999.00 -9999.00 -9999.00 -9999.00 -9999.00 -9999.00 -9999.00 -9999.00 -9999.00 -9999.00 -9999.00 -9999.00 -9999.00 -9999.00 -9999.00 -9999.00 -9999.00 -9999.00 -9999.00 -9999.00 -9999.00 -9999.00 -9999.00 -9999.00 -9999.00 -9999.00 -9999.00 -9999.00 -9999.00 -9999.00 -9999.00 -9999.00 -9999.00 -9999.00 -9999.00 -9999.00 -9999.00 -9999.00 -9999.00 -9999.00 -9999.00 -9999.00 -9999.00 -9999.00 -9999.00 -9999.00 -9999.00
-9999.00 -9999.00 -9999.00 -9999.00 -9999.00 -9999.00 -9999.00 -9999.00 -9999.00 -9999.00 -9999.00 -9999.00 -9999.00 -9999.00 -9999.00 -9999.00 -9999.00 -9999.00 -9999.00 -9999.00 -9999.00 -9999.00 -9999.00 -9999.00 -9999.00 -9999.00 -9999.00 -9999.00 -9999.00 -9999.00 -9999.00 -9999.00 -9999.00 -9999.00 -9999.00 -9999.00 -9999.00 -9999.00 -9999.00 -9999.00 -9999.00 -9999.00 -9999.00 -9999.00 -9999.00 -9999.00 -9999.00 -9999.00 -9999.00 -9999.00 -9999.00 -9999.00 -9999.00 -9999.00 -9999.00 -9999.00 -9999.00 -9999.00 -9999.00 -9999.00 -9999.00 -9999.00 -16.46 -16.38 -16.29 -16.18 -16.07 -15.94 -15.77 -15.64 -15.49 -15.34 -15.16 -14.98 -14.74 -14.51 -14.27 -14.03 -13.87 -13.73 -13.63 -13.55 -13.67 -13.86 -13.86 -13.78 -13.69 -13.60 -13.45 -13.34 -13.22 -13.10 -12.96 -12.87 -12.78 -12.68 -12.59 -12.47 -12.39 -12.28 -12.20 -12.07 -11.96 -11.83 -11.69 -11.56 -11.46 -11.36 -11.27 -11.18 -11.06 -10.96 -10.89 -10.78 -10.68 -10.56 -10.43 -10.32 -10.19 -10.09 -9.96 -9.85 -9.76 -9.66 -9.57 -9.49 -9.41 -9.34 -9.28 -9.19 -9.14 -9.05 -8.96 -8.90 -8.82 -8.75 -8.69 -8.67 -8.62 -8.60 -8.57 -8.55 -8.49 -8.48 -8.45 -8.44 -8.41 -8.39 -8.30 -8.22 -8.18 -8.13 -8.09 -8.04 -7.94 -7.81 -7.52 -7.18 -6.73 -5.92 -4.91 -3.84 -3.36 -3.09 -2.97 -2.91 -2.80 -2.72 -2.57 -2.31 -2.08 -1.88 -1.73 -1.59 -1.44 -1.31 -1.22 -1.04 -0.93 -0.81 -0.89 -0.95 -0.92 -0.83 -0.79 -0.78 -0.79 -0.79 -0.76 -0.70 -0.66 -0.62 -0.61 -0.58 -0.63 -0.64 -0.66 -0.67 -0.67 -0.67 -0.74 -0.82 -0.93 -0.93 -0.96 -0.92 -0.88 -0.92 -1.01 -1.10 -1.10 -1.20 -1.27 -1.34 -1.37 -1.40 -1.43 -1.44 -1.47 -1.49 -1.51 -1.53 -1.56 -1.59 -1.64 -1.68 -1.72 -1.77 -1.81 -1.83 -1.84 -1.83 -1.87 -1.89 -1.93 -1.94 -1.95 -1.96 -1.95 -1.96 -1.97 -1.94 -1.96 -1.93 -1.92 -1.89 -1.87 -1.87 -1.84 -1.80 -1.80 -1.77 -1.77 -1.76 -1.61 -1.48 -1.44 -1.52 -1.50 -1.38 -1.36 -1.16 -1.06 -0.99 -0.78 -0.76 -0.74 -0.69 -0.67 -0.65 -0.51 -0.52 -0.47 -0.41 -0.33 -0.25 -0.11 -0.01 -0.01 0.05 0.07 0.17 0.28 0.33 0.36 0.41 0.49 0.51 0.53 0.56 0.60 0.63 0.67 0.69 0.61 0.65 0.71 0.77 0.86 0.91 1.03 1.17 1.33 1.52 1.93 2.46 2.90 2.84 3.41 4.16 4.11 3.95 3.92 3.71 3.52 3.68 3.61 3.66 3.64 3.58 3.67 3.86 3.83 3.72 3.46 -9999.00 -9999.00 -9999.00 -9999.00 -9999.00 -9999.00 -9999.00 -9999.00 -9999.00 -9999.00 -9999.00 -9999.00 -9999.00 -9999.00 -9999.00 -9999.00 -9999.00 -9999.00 -9999.00 -9999.00 -9999.00 -9999.00 -9999.00 -9999.00 -9999.00 -9999.00 -9999.00 -9999.00 -9999.00 -9999.00 -9999.00 -9999.00 -9999.00 -9999.00 -9999.00 -9999.00 -9999.00 -9999.00 -9999.00 -9999.00 -9999.00 -9999.00 -9999.00 -9999.00 -9999.00 -9999.00 -9999.00 -9999.00 -9999.00
-9999.00 -9999.00 -9999.00 -9999.00 -9999.00 -9999.00 -9999.00 -9999.00 -9999.00 -9999.00 -9999.00 -9999.00 -9999.00 -9999.00 -9999.00 -9999.00 -9999.00 -9999.00 -9999.00 -9999.00 -9999.00 -9999.00 -9999.00 -9999.00 -9999.00 -9999.00 -9999.00 -9999.00 -9999.00 -9999.00 -9999.00 -9999.00 -9999.00 -9999.00 -9999.00 -9999.00 -9999.00 -9999.00 -9999.00 -9999.00 -9999.00 -9999.00 -9999.00 -9999.00 -9999.00 -9999.00 -9999.00 -9999.00 -9999.00 -9999.00 -9999.00 -9999.00 -9999.00 -9999.00 -9999.00 -9999.00 -9999.00 -9999.00 -9999.00 -9999.00 -9999.00 -9999.00 -16.42 -16.33 -16.25 -16.16 -16.05 -15.91 -15.79 -15.63 -15.50 -15.33 -15.15 -14.94 -14.72 -14.49 -14.24 -13.98 -13.80 -13.66 -13.56 -13.61 -13.80 -13.94 -13.94 -13.85 -13.78 -13.66 -13.55 -13.42 -13.30 -13.16 -13.05 -12.96 -12.85 -12.73 -12.61 -12.52 -12.41 -12.31 -12.18 -12.07 -11.94 -11.78 -11.63 -11.50 -11.39 -11.28 -11.20 -11.09 -10.99 -10.88 -10.79 -10.68 -10.58 -10.47 -10.35 -10.22 -10.12 -9.98 -9.86 -9.77 -9.66 -9.58 -9.51 -9.42 -9.36 -9.30 -9.21 -9.18 -9.08 -8.99 -8.90 -8.80 -8.74 -8.66 -8.64 -8.60 -8.58 -8.55 -8.52 -8.47 -8.43 -8.43 -8.40 -8.39 -8.36 -8.33 -8.22 -8.17 -8.12 -8.05 -7.99 -7.90 -7.76 -7.56 -7.19 -6.71 -5.97 -5.07 -3.82 -3.29 -2.94 -2.81 -2.75 -2.67 -2.63 -2.55 -2.36 -2.17 -1.91 -1.72 -1.61 -1.46 -1.33 -1.22 -1.04 -0.90 -0.81 -0.86 -0.94 -1.00 -0.91 -0.87 -0.80 -0.79 -0.79 -0.78 -0.76 -0.68 -0.64 -0.60 -0.56 -0.52 -0.51 -0.50 -0.58 -0.57 -0.64 -0.77 -0.85 -0.94 -0.96 -0.94 -0.89 -0.86 -0.84 -0.85 -0.93 -1.02 -1.04 -1.06 -1.12 -1.19 -1.23 -1.27 -1.30 -1.32 -1.35 -1.36 -1.39 -1.42 -1.44 -1.47 -1.51 -1.56 -1.61 -1.65 -1.68 -1.69 -1.68 -1.74 -1.74 -1.75 -1.78 -1.83 -1.84 -1.85 -1.86 -1.85 -1.86 -1.84 -1.83 -1.83 -1.81 -1.80 -1.78 -1.77 -1.73 -1.72 -1.66 -1.64 -1.60 -1.51 -1.44 -1.46 -1.54 -1.48 -1.38 -1.36 -1.13 -1.08 -0.90 -0.93 -0.89 -0.70 -0.65 -0.63 -0.60 -0.55 -0.44 -0.31 -0.30 -0.25 -0.18 -0.13 -0.05 0.06 0.08 0.07 0.13 0.22 0.28 0.37 0.42 0.44 0.55 0.58 0.60 0.60 0.63 0.65 0.71 0.63 0.71 0.74 0.81 0.97 1.06 1.18 1.30 1.69 2.08 2.13 2.71 3.54 3.86 4.09 3.92 3.84 3.82 3.79 3.81 3.71 3.69 3.61 3.66 3.56 3.45 3.43 3.60 3.58 3.53 3.34 3.18 -9999.00 -9999.00 -9999.00 -9999.00 -9999.00 -9999.00 -9999.00 -9999.00 -9999.00 -9999.00 -9999.00 -9999.00 -9999.00 -9999.00 -9999.00 -9999.00 -9999.00 -9999.00 -9999.00 -9999.00 -9999.00 -9999.00 -9999.00 -9999.00 -9999.00 -9999.00 -9999.00 -9999.00 -9999.00 -9999.00 -9999.00 -9999.00 -9999.00 -9999.00 -9999.00 -9999.00 -9999.00 -9999.00 -9999.00 -9999.00 -9999.00 -9999.00 -9999.00 -9999.00 -9999.00 -9999.00 -9999.00 -9999.00 -9999.00
-9999.00 -9999.00 -9999.00 -9999.00 -9999.00 -9999.00 -9999.00 -9999.00 -9999.00 -9999.00 -9999.00 -9999.00 -9999.00 -9999.00 -9999.00 -9999.00 -9999.00 -9999.00 -9999.00 -9999.00 -9999.00 -9999.00 -9999.00 -9999.00 -9999.00 -9999.00 -9999.00 -9999.00 -9999.00 -9999.00 -9999.00 -9999.00 -9999.00 -9999.00 -9999.00 -9999.00 -9999.00 -9999.00 -9999.00 -9999.00 -9999.00 -9999.00 -9999.00 -9999.00 -9999.00 -9999.00 -9999.00 -9999.00 -9999.00 -9999.00 -9999.00 -9999.00 -9999.00 -9999.00 -9999.00 -9999.00 -9999.00 -9999.00 -9999.00 -9999.00 -9999.00 -16.44 -16.38 -16.30 -16.20 -16.12 -16.04 -15.93 -15.78 -15.65 -15.50 -15.33 -15.14 -14.92 -14.72 -14.49 -14.22 -13.94 -13.69 -13.60 -13.58 -13.74 -13.90 -13.93 -13.89 -13.90 -13.86 -13.75 -13.62 -13.51 -13.36 -13.23 -13.14 -13.01 -12.89 -12.76 -12.64 -12.54 -12.43 -12.29 -12.17 -12.04 -11.87 -11.72 -11.58 -11.45 -11.33 -11.23 -11.11 -11.00 -10.90 -10.80 -10.70 -10.58 -10.48 -10.36 -10.25 -10.15 -10.03 -9.88 -9.79 -9.70 -9.60 -9.52 -9.44 -9.36 -9.31 -9.23 -9.18 -9.12 -9.04 -8.95 -8.85 -8.74 -8.63 -8.62 -8.57 -8.56 -8.52 -8.49 -8.45 -8.40 -8.37 -8.37 -8.35 -8.31 -8.26 -8.19 -8.17 -8.11 -8.03 -7.96 -7.86 -7.73 -7.53 -7.20 -6.70 -5.98 -5.22 -4.14 -3.28 -2.79 -2.68 -2.60 -2.52 -2.48 -2.46 -2.37 -2.23 -2.02 -1.84 -1.63 -1.49 -1.35 -1.20 -1.02 -0.86 -0.79 -0.80 -0.87 -0.97 -0.99 -0.93 -0.86 -0.80 -0.79 -0.76 -0.74 -0.70 -0.67 -0.61 -0.54 -0.49 -0.49 -0.50 -0.52 -0.52 -0.59 -0.75 -0.89 -0.94 -0.98 -0.93 -0.88 -0.82 -0.77 -0.76 -0.82 -0.86 -0.96 -0.98 -1.00 -1.03 -1.06 -1.10 -1.14 -1.16 -1.19 -1.22 -1.24 -1.27 -1.30 -1.33 -1.36 -1.40 -1.44 -1.48 -1.52 -1.56 -1.56 -1.62 -1.62 -1.58 -1.61 -1.64 -1.69 -1.71 -1.71 -1.74 -1.75 -1.76 -1.76 -1.73 -1.72 -1.71 -1.69 -1.67 -1.66 -1.64 -1.62 -1.61 -1.59 -1.60 -1.59 -1.55 -1.59 -1.39 -1.32 -1.25 -1.17 -1.10 -0.97 -0.83 -0.77 -0.65 -0.58 -0.60 -0.59 -0.54 -0.45 -0.38 -0.28 -0.23 -0.11 -0.06 -0.04 0.02 0.04 0.15 0.13 0.26 0.31 0.39 0.41 0.48 0.47 0.54 0.59 0.64 0.63 0.65 0.70 0.73 0.81 0.88 0.96 1.10 1.24 1.35 1.84 2.35 2.72 3.09 3.47 3.96 3.84 3.72 3.62 3.61 3.66 3.68 3.69 3.58 3.58 3.60 3.40 3.46 3.37 3.25 3.27 3.28 3.21 3.27 3.13 3.07 -9999.00 -9999.00 -9999.00 -9999.00 -9999.00 -9999.00 -9999.00 -9999.00 -9999.00 -9999.00 -9999.00 -9999.00 -9999.00 -9999.00 -9999.00 -9999.00 -9999.00 -9999.00 -9999.00 -9999.00 -9999.00 -9999.00 -9999.00 -9999.00 -9999.00 -9999.00 -9999.00 -9999.00 -9999.00 -9999.00 -9999.00 -9999.00 -9999.00 -9999.00 -9999.00 -9999.00 -9999.00 -9999.00 -9999.00 -9999.00 -9999.00 -9999.00 -9999.00 -9999.00 -9999.00 -9999.00 -9999.00 -9999.00 -9999.00
-9999.00 -9999.00 -9999.00 -9999.00 -9999.00 -9999.00 -9999.00 -9999.00 -9999.00 -9999.00 -9999.00 -9999.00 -9999.00 -9999.00 -9999.00 -9999.00 -9999.00 -9999.00 -9999.00 -9999.00 -9999.00 -9999.00 -9999.00 -9999.00 -9999.00 -9999.00 -9999.00 -9999.00 -9999.00 -9999.00 -9999.00 -9999.00 -9999.00 -9999.00 -9999.00 -9999.00 -9999.00 -9999.00 -9999.00 -9999.00 -9999.00 -9999.00 -9999.00 -9999.00 -9999.00 -9999.00 -9999.00 -9999.00 -9999.00 -9999.00 -9999.00 -9999.00 -9999.00 -9999.00 -9999.00 -9999.00 -9999.00 -9999.00 -9999.00 -9999.00 -9999.00 -16.40 -16.34 -16.24 -16.17 -16.08 -16.00 -15.91 -15.80 -15.66 -15.51 -15.33 -15.12 -14.95 -14.73 -14.49 -14.22 -13.95 -13.75 -13.57 -13.69 -13.87 -13.90 -13.87 -13.85 -13.85 -13.85 -13.80 -13.72 -13.56 -13.44 -13.32 -13.17 -13.05 -12.92 -12.78 -12.68 -12.54 -12.40 -12.28 -12.14 -11.96 -11.82 -11.68 -11.53 -11.40 -11.29 -11.15 -11.02 -10.92 -10.81 -10.72 -10.58 -10.49 -10.40 -10.28 -10.17 -10.04 -9.89 -9.84 -9.72 -9.61 -9.53 -9.46 -9.37 -9.32 -9.23 -9.19 -9.16 -9.07 -9.01 -8.92 -8.80 -8.68 -8.62 -8.55 -8.54 -8.49 -8.47 -8.42 -8.37 -8.36 -8.34 -8.30 -8.29 -8.19 -8.12 -8.07 -8.03 -8.02 -7.93 -7.81 -7.69 -7.51 -7.22 -6.72 -6.00 -5.33 -4.55 -3.64 -2.94 -2.60 -2.44 -2.37 -2.33 -2.33 -2.25 -2.16 -2.03 -1.89 -1.67 -1.50 -1.35 -1.16 -1.01 -0.79 -0.75 -0.73 -0.81 -0.90 -1.00 -0.99 -0.92 -0.84 -0.81 -0.80 -0.75 -0.69 -0.64 -0.60 -0.58 -0.51 -0.42 -0.45 -0.48 -0.49 -0.55 -0.66 -0.81 -0.87 -0.93 -0.91 -0.86 -0.81 -0.77 -0.68 -0.66 -0.75 -0.81 -0.90 -0.92 -0.95 -0.97 -0.97 -0.98 -1.02 -1.04 -1.08 -1.10 -1.13 -1.16 -1.18 -1.22 -1.25 -1.29 -1.33 -1.37 -1.41 -1.44 -1.51 -1.49 -1.45 -1.45 -1.47 -1.50 -1.53 -1.56 -1.59 -1.61 -1.61 -1.63 -1.64 -1.64 -1.60 -1.59 -1.58 -1.58 -1.55 -1.53 -1.53 -1.61 -1.56 -1.53 -1.49 -1.40 -1.28 -1.22 -1.21 -1.15 -1.04 -0.99 -0.76 -0.66 -0.56 -0.54 -0.54 -0.46 -0.50 -0.46 -0.36 -0.27 -0.20 -0.04 -0.07 -0.02 0.02 0.11 0.13 0.27 0.21 0.27 0.32 0.43 0.47 0.50 0.44 0.51 0.55 0.60 0.66 0.67 0.77 0.83 1.03 1.12 1.24 1.35 1.66 1.95 2.99 3.50 3.78 3.76 3.78 3.65 3.70 3.55 3.38 3.44 3.44 3.40 3.40 3.35 3.28 3.25 3.19 3.20 3.15 3.05 3.12 3.14 3.10 3.03 3.05 -9999.00 -9999.00 -9999.00 -9999.00 -9999.00 -9999.00 -9999.00 -9999.00 -9999.00 -9999.00 -9999.00 -9999.00 -9999.00 -9999.00 -9999.00 -9999.00 -9999.00 -9999.00 -9999.00 -9999.00 -9999.00 -9999.00 -9999.00 -9999.00 -9999.00 -9999.00 -9999.00 -9999.00 -9999.00 -9999.00 -9999.00 -9999.00 -9999.00 -9999.00 -9999.00 -9999.00 -9999.00 -9999.00 -9999.00 -9999.00 -9999.00 -9999.00 -9999.00 -9999.00 -9999.00 -9999.00 -9999.00 -9999.00 -9999.00 -9999.00
-9999.00 -9999.00 -9999.00 -9999.00 -9999.00 -9999.00 -9999.00 -9999.00 -9999.00 -9999.00 -9999.00 -9999.00 -9999.00 -9999.00 -9999.00 -9999.00 -9999.00 -9999.00 -9999.00 -9999.00 -9999.00 -9999.00 -9999.00 -9999.00 -9999.00 -9999.00 -9999.00 -9999.00 -9999.00 -9999.00 -9999.00 -9999.00 -9999.00 -9999.00 -9999.00 -9999.00 -9999.00 -9999.00 -9999.00 -9999.00 -9999.00 -9999.00 -9999.00 -9999.00 -9999.00 -9999.00 -9999.00 -9999.00 -9999.00 -9999.00 -9999.00 -9999.00 -9999.00 -9999.00 -9999.00 -9999.00 -9999.00 -9999.00 -9999.00 -9999.00 -16.44 -16.37 -16.30 -16.22 -16.13 -16.05 -15.97 -15.88 -15.80 -15.68 -15.52 -15.34 -15.17 -14.96 -14.74 -14.50 -14.25 -14.05 -13.85 -13.79 -13.86 -13.90 -13.86 -13.79 -13.83 -13.84 -13.84 -13.82 -13.75 -13.64 -13.50 -13.35 -13.21 -13.08 -12.94 -12.83 -12.67 -12.53 -12.39 -12.24 -12.06 -11.92 -11.78 -11.61 -11.47 -11.34 -11.21 -11.06 -10.94 -10.83 -10.72 -10.60 -10.49 -10.40 -10.30 -10.18 -10.07 -9.92 -9.85 -9.74 -9.64 -9.55 -9.47 -9.38 -9.30 -9.24 -9.21 -9.18 -9.11 -9.06 -8.98 -8.87 -8.77 -8.67 -8.58 -8.54 -8.48 -8.45 -8.40 -8.34 -8.31 -8.30 -8.27 -8.22 -8.13 -8.06 -7.97 -7.92 -7.85 -7.79 -7.75 -7.65 -7.48 -7.24 -6.78 -6.07 -5.41 -4.86 -4.04 -3.28 -2.81 -2.47 -2.28 -2.18 -2.20 -2.13 -2.05 -1.92 -1.83 -1.68 -1.50 -1.35 -1.13 -0.96 -0.77 -0.66 -0.64 -0.74 -0.84 -0.94 -1.02 -1.00 -0.94 -0.88 -0.87 -0.83 -0.77 -0.71 -0.65 -0.61 -0.55 -0.50 -0.46 -0.46 -0.46 -0.49 -0.59 -0.75 -0.83 -0.87 -0.87 -0.84 -0.80 -0.74 -0.65 -0.56 -0.59 -0.66 -0.76 -0.83 -0.86 -0.89 -0.89 -0.89 -0.90 -0.93 -0.95 -0.98 -1.00 -1.02 -1.04 -1.07 -1.11 -1.15 -1.19 -1.23 -1.26 -1.28 -1.34 -1.35 -1.32 -1.31 -1.29 -1.33 -1.36 -1.39 -1.42 -1.45 -1.47 -1.48 -1.52 -1.51 -1.51 -1.50 -1.47 -1.48 -1.46 -1.46 -1.43 -1.38 -1.38 -1.37 -1.33 -1.30 -1.27 -1.24 -1.11 -1.05 -0.91 -0.89 -0.87 -0.67 -0.52 -0.53 -0.52 -0.52 -0.47 -0.39 -0.31 -0.24 -0.16 -0.09 0.01 0.07 0.06 0.11 0.13 0.14 0.28 0.32 0.33 0.36 0.38 0.45 0.50 0.52 0.49 0.59 0.64 0.71 0.82 0.95 1.13 1.27 1.40 1.64 2.35 2.93 3.04 4.04 3.89 3.59 3.52 3.42 3.39 3.74 3.34 3.10 3.21 3.17 3.17 3.12 3.08 2.99 2.90 2.92 2.85 2.92 2.84 -9999.00 -9999.00 -9999.00 -9999.00 -9999.00 -9999.00 -9999.00 -9999.00 -9999.00 -9999.00 -9999.00 -9999.00 -9999.00 -9999.00 -9999.00 -9999.00 -9999.00 -9999.00 -9999.00 -9999.00 -9999.00 -9999.00 -9999.00 -9999.00 -9999.00 -9999.00 -9999.00 -9999.00 -9999.00 -9999.00 -9999.00 -9999.00 -9999.00 -9999.00 -9999.00 -9999.00 -9999.00 -9999.00 -9999.00 -9999.00 -9999.00 -9999.00 -9999.00 -9999.00 -9999.00 -9999.00 -9999.00 -9999.00 -9999.00 -9999.00 -9999.00 -9999.00 -9999.00 -9999.00 -9999.00
-9999.00 -9999.00 -9999.00 -9999.00 -9999.00 -9999.00 -9999.00 -9999.00 -9999.00 -9999.00 -9999.00 -9999.00 -9999.00 -9999.00 -9999.00 -9999.00 -9999.00 -9999.00 -9999.00 -9999.00 -9999.00 -9999.00 -9999.00 -9999.00 -9999.00 -9999.00 -9999.00 -9999.00 -9999.00 -9999.00 -9999.00 -9999.00 -9999.00 -9999.00 -9999.00 -9999.00 -9999.00 -9999.00 -9999.00 -9999.00 -9999.00 -9999.00 -9999.00 -9999.00 -9999.00 -9999.00 -9999.00 -9999.00 -9999.00 -9999.00 -9999.00 -9999.00 -9999.00 -9999.00 -9999.00 -9999.00 -9999.00 -9999.00 -9999.00 -9999.00 -16.40 -16.33 -16.26 -16.19 -16.10 -16.03 -15.94 -15.87 -15.76 -15.67 -15.56 -15.40 -15.20 -15.00 -14.79 -14.55 -14.34 -14.13 -14.03 -14.03 -14.02 -13.94 -13.74 -13.78 -13.82 -13.87 -13.87 -13.83 -13.75 -13.67 -13.52 -13.39 -13.25 -13.10 -12.97 -12.80 -12.64 -12.50 -12.34 -12.16 -12.02 -11.87 -11.70 -11.55 -11.41 -11.26 -11.12 -10.98 -10.87 -10.74 -10.61 -10.50 -10.42 -10.32 -10.20 -10.11 -9.97 -9.86 -9.76 -9.67 -9.56 -9.47 -9.39 -9.30 -9.26 -9.21 -9.18 -9.14 -9.09 -9.05 -8.94 -8.85 -8.75 -8.64 -8.56 -8.49 -8.45 -8.38 -8.32 -8.27 -8.26 -8.25 -8.18 -8.08 -7.97 -7.88 -7.80 -7.69 -7.58 -7.48 -7.45 -7.42 -7.21 -6.82 -6.13 -5.47 -5.00 -4.38 -3.62 -3.05 -2.56 -2.34 -2.25 -2.09 -2.01 -1.93 -1.81 -1.73 -1.61 -1.47 -1.33 -1.11 -0.93 -0.78 -0.66 -0.54 -0.67 -0.77 -0.87 -0.97 -1.03 -1.00 -0.98 -0.95 -0.91 -0.87 -0.80 -0.74 -0.69 -0.61 -0.53 -0.53 -0.50 -0.49 -0.49 -0.56 -0.65 -0.75 -0.79 -0.80 -0.86 -0.78 -0.71 -0.69 -0.58 -0.49 -0.54 -0.60 -0.70 -0.82 -0.82 -0.81 -0.81 -0.81 -0.83 -0.85 -0.87 -0.89 -0.91 -0.92 -0.94 -0.98 -1.02 -1.06 -1.10 -1.12 -1.11 -1.14 -1.23 -1.20 -1.09 -1.21 -1.16 -1.19 -1.22 -1.25 -1.27 -1.30 -1.33 -1.33 -1.34 -1.37 -1.37 -1.38 -1.36 -1.35 -1.34 -1.35 -1.31 -1.29 -1.32 -1.25 -1.16 -1.07 -0.97 -0.91 -0.81 -0.81 -0.78 -0.76 -0.74 -0.57 -0.52 -0.52 -0.53 -0.42 -0.40 -0.26 -0.17 -0.09 -0.10 -0.03 0.03 0.12 0.12 0.17 0.21 0.22 0.28 0.39 0.41 0.42 0.45 0.46 0.51 0.56 0.64 0.70 0.78 0.92 1.09 1.28 1.43 1.69 2.21 2.40 3.39 4.26 3.92 3.46 3.40 3.34 3.26 3.20 3.14 3.58 3.03 2.82 2.94 2.92 2.92 -9999.00 -9999.00 -9999.00 -9999.00 -9999.00 -9999.00 -9999.00 -9999.00 -9999.00 -9999.00 -9999.00 -9999.00 -9999.00 -9999.00 -9999.00 -9999.00 -9999.00 -9999.00 -9999.00 -9999.00 -9999.00 -9999.00 -9999.00 -9999.00 -9999.00 -9999.00 -9999.00 -9999.00 -9999.00 -9999.00 -9999.00 -9999.00 -9999.00 -9999.00 -9999.00 -9999.00 -9999.00 -9999.00 -9999.00 -9999.00 -9999.00 -9999.00 -9999.00 -9999.00 -9999.00 -9999.00 -9999.00 -9999.00 -9999.00 -9999.00 -9999.00 -9999.00 -9999.00 -9999.00 -9999.00 -9999.00 -9999.00 -9999.00 -9999.00 -9999.00 -9999.00 -9999.00 -9999.00
-9999.00 -9999.00 -9999.00 -9999.00 -9999.00 -9999.00 -9999.00 -9999.00 -9999.00 -9999.00 -9999.00 -9999.00 -9999.00 -9999.00 -9999.00 -9999.00 -9999.00 -9999.00 -9999.00 -9999.00 -9999.00 -9999.00 -9999.00 -9999.00 -9999.00 -9999.00 -9999.00 -9999.00 -9999.00 -9999.00 -9999.00 -9999.00 -9999.00 -9999.00 -9999.00 -9999.00 -9999.00 -9999.00 -9999.00 -9999.00 -9999.00 -9999.00 -9999.00 -9999.00 -9999.00 -9999.00 -9999.00 -9999.00 -9999.00 -9999.00 -9999.00 -9999.00 -9999.00 -9999.00 -9999.00 -9999.00 -9999.00 -9999.00 -9999.00 -16.43 -16.36 -16.30 -16.22 -16.13 -16.08 -15.99 -15.92 -15.83 -15.73 -15.65 -15.56 -15.42 -15.25 -15.07 -14.85 -14.64 -14.44 -14.29 -14.20 -14.19 -14.12 -13.96 -13.84 -13.79 -13.89 -13.92 -13.91 -13.83 -13.74 -13.63 -13.54 -13.42 -13.27 -13.11 -12.95 -12.76 -12.61 -12.44 -12.26 -12.11 -11.96 -11.78 -11.61 -11.48 -11.32 -11.17 -11.02 -10.89 -10.78 -10.65 -10.51 -10.43 -10.34 -10.22 -10.13 -10.01 -9.89 -9.78 -9.68 -9.59 -9.49 -9.41 -9.31 -9.26 -9.19 -9.17 -9.13 -9.10 -9.05 -8.97 -8.93 -8.82 -8.72 -8.59 -8.51 -8.46 -8.40 -8.32 -8.26 -8.19 -8.21 -8.16 -8.05 -7.92 -7.79 -7.69 -7.52 -7.38 -7.23 -7.14 -7.09 -7.02 -6.77 -6.18 -5.53 -5.05 -4.56 -3.91 -3.33 -2.68 -2.38 -2.28 -2.12 -1.99 -1.88 -1.70 -1.62 -1.54 -1.42 -1.31 -1.12 -0.94 -0.79 -0.72 -0.69 -0.63 -0.60 -0.75 -0.91 -1.04 -1.02 -1.00 -0.98 -0.96 -0.94 -0.90 -0.83 -0.79 -0.70 -0.64 -0.58 -0.55 -0.52 -0.53 -0.57 -0.60 -0.69 -0.74 -0.75 -0.77 -0.78 -0.75 -0.69 -0.62 -0.53 -0.53 -0.50 -0.56 -0.73 -0.75 -0.73 -0.73 -0.73 -0.74 -0.77 -0.77 -0.79 -0.80 -0.83 -0.85 -0.86 -0.90 -0.92 -0.96 -0.98 -0.94 -0.94 -1.03 -1.07 -0.98 -1.04 -1.02 -1.02 -0.97 -1.05 -1.09 -1.12 -1.14 -1.17 -1.17 -1.19 -1.21 -1.24 -1.24 -1.22 -1.22 -1.21 -1.19 -1.15 -1.27 -1.27 -1.11 -1.02 -0.93 -0.83 -0.77 -0.79 -0.72 -0.65 -0.63 -0.61 -0.54 -0.50 -0.38 -0.37 -0.28 -0.19 -0.06 -0.04 -0.01 0.06 0.10 0.10 0.20 0.27 0.19 0.21 0.29 0.29 0.40 0.40 0.48 0.58 0.61 0.66 0.70 0.76 0.88 1.04 1.20 1.38 1.68 2.00 2.50 3.52 3.95 3.76 3.46 3.45 3.48 3.22 3.11 3.00 3.02 2.89 2.83 2.84 -9999.00 -9999.00 -9999.00 -9999.00 -9999.00 -9999.00 -9999.00 -9999.00 -9999.00 -9999.00 -9999.00 -9999.00 -9999.00 -9999.00 -9999.00 -9999.00 -9999.00 -9999.00 -9999.00 -9999.00 -9999.00 -9999.00 -9999.00 -9999.00 -9999.00 -9999.00 -9999.00 -9999.00 -9999.00 -9999.00 -9999.00 -9999.00 -9999.00 -9999.00 -9999.00 -9999.00 -9999.00 -9999.00 -9999.00 -9999.00 -9999.00 -9999.00 -9999.00 -9999.00 -9999.00 -9999.00 -9999.00 -9999.00 -9999.00 -9999.00 -9999.00 -9999.00 -9999.00 -9999.00 -9999.00 -9999.00 -9999.00 -9999.00 -9999.00 -9999.00 -9999.00 -9999.00 -9999.00 -9999.00 -9999.00 -9999.00 -9999.00
-9999.00 -9999.00 -9999.00 -9999.00 -9999.00 -9999.00 -9999.00 -9999.00 -9999.00 -9999.00 -9999.00 -9999.00 -9999.00 -9999.00 -9999.00 -9999.00 -9999.00 -9999.00 -9999.00 -9999.00 -9999.00 -9999.00 -9999.00 -9999.00 -9999.00 -9999.00 -9999.00 -9999.00 -9999.00 -9999.00 -9999.00 -9999.00 -9999.00 -9999.00 -9999.00 -9999.00 -9999.00 -9999.00 -9999.00 -9999.00 -9999.00 -9999.00 -9999.00 -9999.00 -9999.00 -9999.00 -9999.00 -9999.00 -9999.00 -9999.00 -9999.00 -9999.00 -9999.00 -9999.00 -9999.00 -9999.00 -9999.00 -9999.00 -9999.00 -16.40 -16.33 -16.26 -16.17 -16.12 -16.05 -15.97 -15.90 -15.79 -15.71 -15.62 -15.52 -15.42 -15.33 -15.15 -14.94 -14.73 -14.54 -14.45 -14.40 -14.30 -14.16 -13.99 -13.95 -13.96 -13.97 -13.99 -13.90 -13.81 -13.72 -13.64 -13.53 -13.42 -13.27 -13.10 -12.89 -12.71 -12.55 -12.37 -12.20 -12.04 -11.87 -11.71 -11.54 -11.38 -11.23 -11.06 -10.93 -10.80 -10.68 -10.54 -10.43 -10.34 -10.24 -10.15 -10.05 -9.91 -9.82 -9.71 -9.63 -9.52 -9.43 -9.33 -9.26 -9.18 -9.16 -9.13 -9.12 -9.06 -8.98 -8.93 -8.87 -8.77 -8.65 -8.53 -8.46 -8.42 -8.34 -8.27 -8.15 -8.13 -8.13 -8.03 -7.87 -7.69 -7.58 -7.38 -7.20 -7.01 -6.86 -6.76 -6.70 -6.52 -6.09 -5.55 -5.10 -4.71 -4.17 -3.65 -3.03 -2.59 -2.35 -2.17 -2.00 -1.89 -1.71 -1.57 -1.46 -1.38 -1.29 -1.16 -1.02 -0.88 -0.81 -0.86 -0.82 -0.72 -0.55 -0.63 -0.84 -0.99 -1.00 -0.99 -0.97 -0.95 -0.93 -0.90 -0.88 -0.79 -0.73 -0.67 -0.62 -0.59 -0.56 -0.59 -0.64 -0.67 -0.72 -0.74 -0.72 -0.76 -0.74 -0.69 -0.66 -0.58 -0.46 -0.47 -0.51 -0.59 -0.65 -0.71 -0.68 -0.67 -0.65 -0.66 -0.67 -0.69 -0.71 -0.73 -0.75 -0.77 -0.78 -0.81 -0.83 -0.86 -0.87 -0.84 -0.85 -0.92 -0.90 -0.87 -0.85 -0.82 -0.84 -0.86 -0.90 -0.94 -0.97 -1.01 -1.00 -0.96 -0.99 -1.02 -1.07 -1.08 -1.08 -1.06 -1.04 -1.03 -1.05 -1.06 -1.10 -0.97 -0.87 -0.76 -0.74 -0.73 -0.66 -0.62 -0.57 -0.51 -0.48 -0.40 -0.40 -0.27 -0.15 -0.10 -0.09 0.02 0.09 0.09 0.18 0.22 0.18 0.15 0.19 0.25 0.34 0.44 0.51 0.57 0.65 0.67 0.74 0.76 0.82 0.89 0.97 1.15 1.30 1.57 1.87 2.27 2.58 3.82 3.80 3.54 3.59 3.34 3.18 3.31 3.07 2.87 2.76 -9999.00 -9999.00 -9999.00 -9999.00 -9999.00 -9999.00 -9999.00 -9999.00 -9999.00 -9999.00 -9999.00 -9999.00 -9999.00 -9999.00 -9999.00 -9999.00 -9999.00 -9999.00 -9999.00 -9999.00 -9999.00 -9999.00 -9999.00 -9999.00 -9999.00 -9999.00 -9999.00 -9999.00 -9999.00 -9999.00 -9999.00 -9999.00 -9999.00 -9999.00 -9999.00 -9999.00 -9999.00 -9999.00 -9999.00 -9999.00 -9999.00 -9999.00 -9999.00 -9999.00 -9999.00 -9999.00 -9999.00 -9999.00 -9999.00 -9999.00 -9999.00 -9999.00 -9999.00 -9999.00 -9999.00 -9999.00 -9999.00 -9999.00 -9999.00 -9999.00 -9999.00 -9999.00 -9999.00 -9999.00 -9999.00 -9999.00 -9999.00 -9999.00 -9999.00 -9999.00 -9999.00
-9999.00 -9999.00 -9999.00 -9999.00 -9999.00 -9999.00 -9999.00 -9999.00 -9999.00 -9999.00 -9999.00 -9999.00 -9999.00 -9999.00 -9999.00 -9999.00 -9999.00 -9999.00 -9999.00 -9999.00 -9999.00 -9999.00 -9999.00 -9999.00 -9999.00 -9999.00 -9999.00 -9999.00 -9999.00 -9999.00 -9999.00 -9999.00 -9999.00 -9999.00 -9999.00 -9999.00 -9999.00 -9999.00 -9999.00 -9999.00 -9999.00 -9999.00 -9999.00 -9999.00 -9999.00 -9999.00 -9999.00 -9999.00 -9999.00 -9999.00 -9999.00 -9999.00 -9999.00 -9999.00 -9999.00 -9999.00 -9999.00 -9999.00 -9999.00 -16.36 -16.29 -16.21 -16.15 -16.09 -16.00 -15.96 -15.85 -15.77 -15.68 -15.60 -15.50 -15.43 -15.34 -15.23 -15.04 -14.85 -14.69 -14.61 -14.49 -14.35 -14.18 -14.12 -14.08 -14.09 -14.07 -13.98 -13.91 -13.81 -13.72 -13.62 -13.50 -13.38 -13.23 -13.04 -12.83 -12.66 -12.47 -12.31 -12.14 -11.97 -11.80 -11.63 -11.46 -11.29 -11.12 -10.99 -10.84 -10.71 -10.56 -10.43 -10.36 -10.25 -10.16 -10.08 -9.96 -9.83 -9.73 -9.68 -9.55 -9.49 -9.35 -9.30 -9.19 -9.16 -9.12 -9.11 -9.07 -8.99 -8.93 -8.86 -8.78 -8.66 -8.53 -8.47 -8.43 -8.38 -8.27 -8.13 -8.05 -7.98 -7.94 -7.81 -7.64 -7.46 -7.26 -7.03 -6.76 -6.60 -6.45 -6.38 -6.22 -5.93 -5.42 -5.03 -4.80 -4.43 -3.97 -3.41 -2.93 -2.64 -2.35 -2.08 -1.91 -1.77 -1.61 -1.45 -1.36 -1.28 -1.20 -1.10 -1.00 -0.91 -0.93 -0.91 -0.89 -0.65 -0.49 -0.47 -0.73 -0.94 -0.99 -0.97 -0.95 -0.94 -0.91 -0.89 -0.88 -0.83 -0.76 -0.70 -0.66 -0.64 -0.62 -0.65 -0.70 -0.74 -0.75 -0.74 -0.75 -0.74 -0.71 -0.67 -0.62 -0.44 -0.41 -0.44 -0.51 -0.57 -0.58 -0.63 -0.67 -0.61 -0.60 -0.60 -0.61 -0.63 -0.64 -0.65 -0.66 -0.71 -0.72 -0.74 -0.76 -0.79 -0.77 -0.82 -0.76 -0.75 -0.68 -0.67 -0.67 -0.67 -0.68 -0.72 -0.75 -0.79 -0.83 -0.85 -0.84 -0.83 -0.80 -0.88 -0.90 -0.91 -0.90 -0.89 -0.86 -0.88 -0.95 -0.93 -0.98 -0.72 -0.66 -0.66 -0.65 -0.64 -0.55 -0.50 -0.52 -0.48 -0.36 -0.30 -0.24 -0.20 -0.11 0.08 0.09 0.10 0.07 0.26 0.23 0.17 0.24 0.25 0.37 0.50 0.56 0.59 0.65 0.70 0.80 0.78 0.85 0.92 1.01 1.08 1.24 1.40 1.76 2.08 2.41 3.64 3.97 3.66 3.47 3.27 3.22 3.16 2.92 -9999.00 -9999.00 -9999.00 -9999.00 -9999.00 -9999.00 -9999.00 -9999.00 -9999.00 -9999.00 -9999.00 -9999.00 -9999.00 -9999.00 -9999.00 -9999.00 -9999.00 -9999.00 -9999.00 -9999.00 -9999.00 -9999.00 -9999.00 -9999.00 -9999.00 -9999.00 -9999.00 -9999.00 -9999.00 -9999.00 -9999.00 -9999.00 -9999.00 -9999.00 -9999.00 -9999.00 -9999.00 -9999.00 -9999.00 -9999.00 -9999.00 -9999.00 -9999.00 -9999.00 -9999.00 -9999.00 -9999.00 -9999.00 -9999.00 -9999.00 -9999.00 -9999.00 -9999.00 -9999.00 -9999.00 -9999.00 -9999.00 -9999.00 -9999.00 -9999.00 -9999.00 -9999.00 -9999.00 -9999.00 -9999.00 -9999.00 -9999.00 -9999.00 -9999.00 -9999.00 -9999.00 -9999.00 -9999.00 -9999.00 -9999.00
-9999.00 -9999.00 -9999.00 -9999.00 -9999.00 -9999.00 -9999.00 -9999.00 -9999.00 -9999.00 -9999.00 -9999.00 -9999.00 -9999.00 -9999.00 -9999.00 -9999.00 -9999.00 -9999.00 -9999.00 -9999.00 -9999.00 -9999.00 -9999.00 -9999.00 -9999.00 -9999.00 -9999.00 -9999.00 -9999.00 -9999.00 -9999.00 -9999.00 -9999.00 -9999.00 -9999.00 -9999.00 -9999.00 -9999.00 -9999.00 -9999.00 -9999.00 -9999.00 -9999.00 -9999.00 -9999.00 -9999.00 -9999.00 -9999.00 -9999.00 -9999.00 -9999.00 -9999.00 -9999.00 -9999.00 -9999.00 -9999.00 -9999.00 -9999.00 -16.32 -16.25 -16.19 -16.11 -16.05 -16.00 -15.89 -15.82 -15.74 -15.67 -15.56 -15.49 -15.41 -15.32 -15.22 -15.11 -14.94 -14.81 -14.68 -14.55 -14.36 -14.27 -14.20 -14.21 -14.16 -14.06 -13.99 -13.91 -13.81 -13.71 -13.61 -13.48 -13.34 -13.12 -12.94 -12.76 -12.57 -12.41 -12.24 -12.07 -11.89 -11.71 -11.54 -11.38 -11.20 -11.04 -10.87 -10.75 -10.59 -10.45 -10.37 -10.25 -10.16 -10.07 -9.97 -9.85 -9.75 -9.72 -9.60 -9.51 -9.38 -9.32 -9.21 -9.16 -9.11 -9.08 -9.09 -8.98 -8.92 -8.84 -8.76 -8.64 -8.50 -8.46 -8.46 -8.40 -8.27 -8.11 -7.99 -7.85 -7.76 -7.58 -7.46 -7.34 -7.14 -6.86 -6.58 -6.33 -6.13 -6.04 -5.91 -5.72 -5.28 -4.90 -4.70 -4.47 -4.25 -3.80 -3.30 -2.94 -2.61 -2.30 -2.07 -1.85 -1.65 -1.49 -1.39 -1.31 -1.21 -1.19 -1.10 -1.01 -0.95 -0.91 -0.78 -0.68 -0.51 -0.42 -0.42 -0.59 -0.91 -0.97 -0.95 -0.95 -0.92 -0.90 -0.87 -0.82 -0.76 -0.73 -0.66 -0.67 -0.65 -0.65 -0.71 -0.76 -0.74 -0.73 -0.73 -0.74 -0.74 -0.68 -0.64 -0.60 -0.47 -0.39 -0.42 -0.48 -0.52 -0.54 -0.54 -0.55 -0.60 -0.65 -0.64 -0.55 -0.56 -0.57 -0.61 -0.60 -0.69 -0.70 -0.69 -0.68 -0.71 -0.68 -0.65 -0.72 -0.59 -0.54 -0.57 -0.60 -0.61 -0.56 -0.62 -0.61 -0.63 -0.68 -0.67 -0.74 -0.67 -0.78 -0.69 -0.77 -0.76 -0.74 -0.72 -0.71 -0.79 -0.85 -0.81 -0.79 -0.61 -0.56 -0.56 -0.57 -0.50 -0.47 -0.32 -0.34 -0.28 -0.19 -0.08 -0.11 -0.04 0.03 0.09 0.11 0.15 0.23 0.35 0.28 0.26 0.30 0.41 0.54 0.65 0.73 0.74 0.78 0.82 0.81 0.91 1.00 1.10 1.19 1.35 1.60 1.95 2.30 2.66 3.63 3.81 3.67 3.45 3.27 -9999.00 -9999.00 -9999.00 -9999.00 -9999.00 -9999.00 -9999.00 -9999.00 -9999.00 -9999.00 -9999.00 -9999.00 -9999.00 -9999.00 -9999.00 -9999.00 -9999.00 -9999.00 -9999.00 -9999.00 -9999.00 -9999.00 -9999.00 -9999.00 -9999.00 -9999.00 -9999.00 -9999.00 -9999.00 -9999.00 -9999.00 -9999.00 -9999.00 -9999.00 -9999.00 -9999.00 -9999.00 -9999.00 -9999.00 -9999.00 -9999.00 -9999.00 -9999.00 -9999.00 -9999.00 -9999.00 -9999.00 -9999.00 -9999.00 -9999.00 -9999.00 -9999.00 -9999.00 -9999.00 -9999.00 -9999.00 -9999.00 -9999.00 -9999.00 -9999.00 -9999.00 -9999.00 -9999.00 -9999.00 -9999.00 -9999.00 -9999.00 -9999.00 -9999.00 -9999.00 -9999.00 -9999.00 -9999.00 -9999.00 -9999.00 -9999.00 -9999.00 -9999.00 -9999.00
-9999.00 -9999.00 -9999.00 -9999.00 -9999.00 -9999.00 -9999.00 -9999.00 -9999.00 -9999.00 -9999.00 -9999.00 -9999.00 -9999.00 -9999.00 -9999.00 -9999.00 -9999.00 -9999.00 -9999.00 -9999.00 -9999.00 -9999.00 -9999.00 -9999.00 -9999.00 -9999.00 -9999.00 -9999.00 -9999.00 -9999.00 -9999.00 -9999.00 -9999.00 -9999.00 -9999.00 -9999.00 -9999.00 -9999.00 -9999.00 -9999.00 -9999.00 -9999.00 -9999.00 -9999.00 -9999.00 -9999.00 -9999.00 -9999.00 -9999.00 -9999.00 -9999.00 -9999.00 -9999.00 -9999.00 -9999.00 -9999.00 -9999.00 -16.34 -16.29 -16.22 -16.15 -16.08 -16.03 -15.94 -15.87 -15.79 -15.72 -15.63 -15.55 -15.47 -15.40 -15.31 -15.19 -15.11 -15.02 -14.87 -14.76 -14.55 -14.43 -14.37 -14.31 -14.26 -14.15 -14.06 -13.97 -13.86 -13.80 -13.71 -13.58 -13.44 -13.22 -13.03 -12.85 -12.66 -12.51 -12.33 -12.17 -11.99 -11.80 -11.64 -11.46 -11.28 -11.12 -10.95 -10.81 -10.62 -10.46 -10.38 -10.25 -10.16 -10.07 -9.97 -9.87 -9.77 -9.74 -9.65 -9.54 -9.42 -9.34 -9.23 -9.18 -9.11 -9.06 -9.05 -8.99 -8.91 -8.82 -8.74 -8.61 -8.52 -8.48 -8.43 -8.37 -8.25 -8.09 -7.93 -7.73 -7.59 -7.38 -7.24 -7.06 -6.91 -6.69 -6.39 -6.14 -5.82 -5.65 -5.60 -5.46 -5.11 -4.77 -4.57 -4.39 -4.19 -3.93 -3.66 -3.24 -2.87 -2.53 -2.27 -2.02 -1.77 -1.55 -1.42 -1.33 -1.23 -1.19 -1.14 -1.12 -1.00 -0.91 -0.76 -0.63 -0.46 -0.36 -0.31 -0.31 -0.37 -0.82 -0.96 -0.95 -0.93 -0.91 -0.88 -0.85 -0.77 -0.73 -0.67 -0.61 -0.62 -0.61 -0.61 -0.68 -0.75 -0.71 -0.72 -0.72 -0.75 -0.75 -0.70 -0.64 -0.60 -0.51 -0.41 -0.40 -0.45 -0.49 -0.50 -0.51 -0.52 -0.52 -0.51 -0.56 -0.54 -0.51 -0.53 -0.56 -0.63 -0.56 -0.60 -0.64 -0.56 -0.58 -0.56 -0.55 -0.63 -0.38 -0.50 -0.59 -0.49 -0.48 -0.40 -0.49 -0.49 -0.54 -0.47 -0.63 -0.53 -0.64 -0.58 -0.62 -0.63 -0.65 -0.61 -0.58 -0.64 -0.69 -0.74 -0.68 -0.60 -0.53 -0.46 -0.52 -0.41 -0.35 -0.28 -0.25 -0.17 -0.08 -0.06 0.04 0.02 0.06 0.11 0.19 0.31 0.29 0.27 0.36 0.30 0.41 0.50 0.57 0.67 0.78 0.87 0.89 0.90 0.92 0.94 1.04 1.17 1.33 1.54 1.83 2.18 2.50 3.01 3.78 3.78 3.56 -9999.00 -9999.00 -9999.00 -9999.00 -9999.00 -9999.00 -9999.00 -9999.00 -9999.00 -9999.00 -9999.00 -9999.00 -9999.00 -9999.00 -9999.00 -9999.00 -9999.00 -9999.00 -9999.00 -9999.00 -9999.00 -9999.00 -9999.00 -9999.00 -9999.00 -9999.00 -9999.00 -9999.00 -9999.00 -9999.00 -9999.00 -9999.00 -9999.00 -9999.00 -9999.00 -9999.00 -9999.00 -9999.00 -9999.00 -9999.00 -9999.00 -9999.00 -9999.00 -9999.00 -9999.00 -9999.00 -9999.00 -9999.00 -9999.00 -9999.00 -9999.00 -9999.00 -9999.00 -9999.00 -9999.00 -9999.00 -9999.00 -9999.00 -9999.00 -9999.00 -9999.00 -9999.00 -9999.00 -9999.00 -9999.00 -9999.00 -9999.00 -9999.00 -9999.00 -9999.00 -9999.00 -9999.00 -9999.00 -9999.00 -9999.00 -9999.00 -9999.00 -9999.00 -9999.00 -9999.00 -9999.00 -9999.00
-9999.00 -9999.00 -9999.00 -9999.00 -9999.00 -9999.00 -9999.00 -9999.00 -9999.00 -9999.00 -9999.00 -9999.00 -9999.00 -9999.00 -9999.00 -9999.00 -9999.00 -9999.00 -9999.00 -9999.00 -9999.00 -9999.00 -9999.00 -9999.00 -9999.00 -9999.00 -9999.00 -9999.00 -9999.00 -9999.00 -9999.00 -9999.00 -9999.00 -9999.00 -9999.00 -9999.00 -9999.00 -9999.00 -9999.00 -9999.00 -9999.00 -9999.00 -9999.00 -9999.00 -9999.00 -9999.00 -9999.00 -9999.00 -9999.00 -9999.00 -9999.00 -9999.00 -9999.00 -9999.00 -9999.00 -9999.00 -9999.00 -9999.00 -16.31 -16.24 -16.18 -16.12 -16.06 -15.99 -15.90 -15.82 -15.76 -15.68 -15.60 -15.54 -15.47 -15.40 -15.28 -15.19 -15.10 -15.00 -14.93 -14.74 -14.62 -14.54 -14.43 -14.36 -14.25 -14.14 -14.04 -13.93 -13.84 -13.77 -13.65 -13.54 -13.34 -13.09 -12.93 -12.75 -12.59 -12.42 -12.26 -12.09 -11.88 -11.73 -11.54 -11.37 -11.20 -11.03 -10.89 -10.71 -10.52 -10.39 -10.26 -10.16 -10.07 -9.97 -9.88 -9.78 -9.73 -9.65 -9.56 -9.45 -9.37 -9.26 -9.17 -9.10 -9.04 -9.02 -8.95 -8.89 -8.79 -8.71 -8.57 -8.54 -8.50 -8.39 -8.26 -8.15 -7.99 -7.86 -7.65 -7.42 -7.19 -7.00 -6.78 -6.65 -6.48 -6.23 -5.93 -5.57 -5.29 -5.30 -5.18 -4.90 -4.64 -4.47 -4.29 -4.10 -3.87 -3.65 -3.42 -3.13 -2.78 -2.48 -2.19 -1.93 -1.69 -1.51 -1.38 -1.25 -1.17 -1.09 -1.04 -0.96 -0.93 -0.76 -0.61 -0.47 -0.36 -0.31 -0.22 -0.11 -0.23 -0.60 -0.88 -0.94 -0.91 -0.89 -0.86 -0.83 -0.75 -0.69 -0.65 -0.55 -0.48 -0.54 -0.58 -0.61 -0.59 -0.67 -0.68 -0.70 -0.72 -0.69 -0.67 -0.63 -0.59 -0.54 -0.44 -0.45 -0.45 -0.47 -0.51 -0.51 -0.50 -0.50 -0.50 -0.53 -0.51 -0.47 -0.48 -0.50 -0.51 -0.47 -0.53 -0.54 -0.48 -0.45 -0.44 -0.47 -0.43 -0.33 -0.32 -0.30 -0.37 -0.35 -0.29 -0.28 -0.29 -0.31 -0.40 -0.35 -0.44 -0.46 -0.53 -0.49 -0.47 -0.52 -0.54 -0.52 -0.52 -0.56 -0.64 -0.61 -0.49 -0.47 -0.35 -0.22 -0.20 -0.19 -0.16 -0.08 0.03 0.05 0.08 0.15 0.19 0.27 0.28 0.40 0.45 0.38 0.36 0.39 0.52 0.61 0.65 0.78 0.84 0.89 0.87 0.90 1.01 1.07 1.14 1.26 1.48 1.67 2.09 2.34 2.75 3.71 4.00 -9999.00 -9999.00 -9999.00 -9999.00 -9999.00 -9999.00 -9999.00 -9999.00 -9999.00 -9999.00 -9999.00 -9999.00 -9999.00 -9999.00 -9999.00 -9999.00 -9999.00 -9999.00 -9999.00 -9999.00 -9999.00 -9999.00 -9999.00 -9999.00 -9999.00 -9999.00 -9999.00 -9999.00 -9999.00 -9999.00 -9999.00 -9999.00 -9999.00 -9999.00 -9999.00 -9999.00 -9999.00 -9999.00 -9999.00 -9999.00 -9999.00 -9999.00 -9999.00 -9999.00 -9999.00 -9999.00 -9999.00 -9999.00 -9999.00 -9999.00 -9999.00 -9999.00 -9999.00 -9999.00 -9999.00 -9999.00 -9999.00 -9999.00 -9999.00 -9999.00 -9999.00 -9999.00 -9999.00 -9999.00 -9999.00 -9999.00 -9999.00 -9999.00 -9999.00 -9999.00 -9999.00 -9999.00 -9999.00 -9999.00 -9999.00 -9999.00 -9999.00 -9999.00 -9999.00 -9999.00 -9999.00 -9999.00 -9999.00 -9999.00 -9999.00
-9999.00 -9999.00 -9999.00 -9999.00 -9999.00 -9999.00 -9999.00 -9999.00 -9999.00 -9999.00 -9999.00 -9999.00 -9999.00 -9999.00 -9999.00 -9999.00 -9999.00 -9999.00 -9999.00 -9999.00 -9999.00 -9999.00 -9999.00 -9999.00 -9999.00 -9999.00 -9999.00 -9999.00 -9999.00 -9999.00 -9999.00 -9999.00 -9999.00 -9999.00 -9999.00 -9999.00 -9999.00 -9999.00 -9999.00 -9999.00 -9999.00 -9999.00 -9999.00 -9999.00 -9999.00 -9999.00 -9999.00 -9999.00 -9999.00 -9999.00 -9999.00 -9999.00 -9999.00 -9999.00 -9999.00 -9999.00 -9999.00 -9999.00 -16.26 -16.19 -16.15 -16.09 -16.04 -15.95 -15.85 -15.80 -15.74 -15.65 -15.58 -15.52 -15.46 -15.37 -15.27 -15.17 -15.08 -15.00 -14.87 -14.77 -14.69 -14.57 -14.46 -14.33 -14.22 -14.11 -14.00 -13.89 -13.81 -13.69 -13.59 -13.41 -13.19 -13.01 -12.83 -12.66 -12.50 -12.32 -12.16 -11.97 -11.81 -11.62 -11.46 -11.29 -11.12 -10.98 -10.79 -10.61 -10.48 -10.31 -10.17 -10.07 -9.98 -9.89 -9.78 -9.72 -9.64 -9.56 -9.47 -9.37 -9.27 -9.20 -9.11 -9.02 -9.00 -8.92 -8.85 -8.75 -8.67 -8.56 -8.57 -8.52 -8.38 -8.18 -8.02 -7.86 -7.69 -7.50 -7.28 -7.01 -6.76 -6.54 -6.38 -6.22 -6.05 -5.82 -5.50 -5.08 -5.00 -4.89 -4.68 -4.51 -4.36 -4.20 -3.99 -3.81 -3.62 -3.43 -3.18 -2.97 -2.70 -2.37 -2.09 -1.82 -1.63 -1.47 -1.31 -1.18 -1.04 -1.01 -0.94 -0.84 -0.78 -0.68 -0.56 -0.46 -0.30 -0.30 -0.10 0.08 -0.05 -0.48 -0.67 -0.86 -0.94 -0.97 -0.97 -0.91 -0.80 -0.70 -0.64 -0.58 -0.54 -0.55 -0.59 -0.62 -0.66 -0.58 -0.69 -0.69 -0.66 -0.71 -0.59 -0.62 -0.63 -0.61 -0.56 -0.57 -0.53 -0.50 -0.51 -0.51 -0.51 -0.45 -0.45 -0.48 -0.47 -0.43 -0.44 -0.44 -0.46 -0.45 -0.39 -0.44 -0.39 -0.32 -0.28 -0.24 -0.20 -0.16 -0.06 -0.16 -0.20 -0.16 -0.10 -0.04 -0.09 -0.15 -0.19 -0.14 -0.15 -0.18 -0.23 -0.26 -0.25 -0.31 -0.37 -0.37 -0.32 -0.34 -0.36 -0.34 -0.23 -0.22 -0.19 -0.04 -0.05 -0.02 0.04 0.14 0.16 0.14 0.21 0.29 0.36 0.39 0.44 0.52 0.46 0.56 0.51 0.54 0.69 0.76 0.81 0.90 0.93 1.00 1.00 1.05 1.09 1.24 1.44 1.69 2.00 2.27 2.61 3.62 3.72 3.74 -9999.00 -9999.00 -9999.00 -9999.00 -9999.00 -9999.00 -9999.00 -9999.00 -9999.00 -9999.00 -9999.00 -9999.00 -9999.00 -9999.00 -9999.00 -9999.00 -9999.00 -9999.00 -9999.00 -9999.00 -9999.00 -9999.00 -9999.00 -9999.00 -9999.00 -9999.00 -9999.00 -9999.00 -9999.00 -9999.00 -9999.00 -9999.00 -9999.00 -9999.00 -9999.00 -9999.00 -9999.00 -9999.00 -9999.00 -9999.00 -9999.00 -9999.00 -9999.00 -9999.00 -9999.00 -9999.00 -9999.00 -9999.00 -9999.00 -9999.00 -9999.00 -9999.00 -9999.00 -9999.00 -9999.00 -9999.00 -9999.00 -9999.00 -9999.00 -9999.00 -9999.00 -9999.00 -9999.00 -9999.00 -9999.00 -9999.00 -9999.00 -9999.00 -9999.00 -9999.00 -9999.00 -9999.00 -9999.00 -9999.00 -9999.00 -9999.00 -9999.00 -9999.00 -9999.00 -9999.00 -9999.00 -9999.00 -9999.00 -9999.00 -9999.00 -9999.00
-9999.00 -9999.00 -9999.00 -9999.00 -9999.00 -9999.00 -9999.00 -9999.00 -9999.00 -9999.00 -9999.00 -9999.00 -9999.00 -9999.00 -9999.00 -9999.00 -9999.00 -9999.00 -9999.00 -9999.00 -9999.00 -9999.00 -9999.00 -9999.00 -9999.00 -9999.00 -9999.00 -9999.00 -9999.00 -9999.00 -9999.00 -9999.00 -9999.00 -9999.00 -9999.00 -9999.00 -9999.00 -9999.00 -9999.00 -9999.00 -9999.00 -9999.00 -9999.00 -9999.00 -9999.00 -9999.00 -9999.00 -9999.00 -9999.00 -9999.00 -9999.00 -9999.00 -9999.00 -9999.00 -9999.00 -9999.00 -9999.00 -9999.00 -16.20 -16.17 -16.11 -16.05 -15.98 -15.88 -15.82 -15.78 -15.70 -15.63 -15.56 -15.50 -15.42 -15.34 -15.25 -15.16 -15.08 -14.97 -14.85 -14.79 -14.68 -14.56 -14.42 -14.30 -14.19 -14.07 -13.94 -13.86 -13.75 -13.64 -13.46 -13.24 -13.08 -12.92 -12.73 -12.58 -12.38 -12.22 -12.05 -11.89 -11.71 -11.55 -11.37 -11.21 -11.06 -10.87 -10.70 -10.56 -10.39 -10.25 -10.13 -10.00 -9.89 -9.78 -9.70 -9.63 -9.57 -9.47 -9.37 -9.30 -9.19 -9.11 -9.01 -8.97 -8.89 -8.82 -8.73 -8.65 -8.54 -8.51 -8.47 -8.40 -8.15 -7.90 -7.75 -7.47 -7.27 -7.04 -6.87 -6.59 -6.29 -6.11 -5.98 -5.82 -5.66 -5.41 -5.05 -5.01 -4.75 -4.46 -4.38 -4.24 -4.10 -3.90 -3.75 -3.58 -3.46 -3.24 -3.02 -2.81 -2.54 -2.24 -1.95 -1.74 -1.57 -1.40 -1.26 -1.09 -1.01 -0.94 -0.86 -0.80 -0.70 -0.57 -0.50 -0.40 -0.27 -0.15 -0.02 0.12 0.06 -0.39 -0.60 -0.82 -0.91 -0.95 -0.99 -0.98 -0.87 -0.76 -0.69 -0.59 -0.57 -0.59 -0.59 -0.60 -0.60 -0.54 -0.48 -0.51 -0.51 -0.49 -0.53 -0.55 -0.63 -0.55 -0.56 -0.52 -0.46 -0.44 -0.50 -0.49 -0.44 -0.43 -0.41 -0.45 -0.43 -0.39 -0.39 -0.39 -0.36 -0.35 -0.31 -0.25 -0.17 -0.17 -0.09 -0.06 0.04 -0.00 -0.01 0.13 -0.02 0.01 0.05 0.16 0.19 0.07 -0.01 0.04 0.04 0.01 -0.02 -0.09 -0.08 -0.05 -0.06 -0.11 -0.13 0.01 -0.15 -0.11 -0.01 -0.01 0.02 0.15 0.19 0.18 0.20 0.26 0.37 0.44 0.39 0.50 0.52 0.53 0.62 0.58 0.59 0.63 0.57 0.71 0.78 0.89 0.92 0.96 1.02 1.11 1.13 1.23 1.40 1.58 1.94 2.22 2.61 3.63 3.96 3.41 -9999.00 -9999.00 -9999.00 -9999.00 -9999.00 -9999.00 -9999.00 -9999.00 -9999.00 -9999.00 -9999.00 -9999.00 -9999.00 -9999.00 -9999.00 -9999.00 -9999.00 -9999.00 -9999.00 -9999.00 -9999.00 -9999.00 -9999.00 -9999.00 -9999.00 -9999.00 -9999.00 -9999.00 -9999.00 -9999.00 -9999.00 -9999.00 -9999.00 -9999.00 -9999.00 -9999.00 -9999.00 -9999.00 -9999.00 -9999.00 -9999.00 -9999.00 -9999.00 -9999.00 -9999.00 -9999.00 -9999.00 -9999.00 -9999.00 -9999.00 -9999.00 -9999.00 -9999.00 -9999.00 -9999.00 -9999.00 -9999.00 -9999.00 -9999.00 -9999.00 -9999.00 -9999.00 -9999.00 -9999.00 -9999.00 -9999.00 -9999.00 -9999.00 -9999.00 -9999.00 -9999.00 -9999.00 -9999.00 -9999.00 -9999.00 -9999.00 -9999.00 -9999.00 -9999.00 -9999.00 -9999.00 -9999.00 -9999.00 -9999.00 -9999.00 -9999.00 -9999.00 -9999.00
-9999.00 -9999.00 -9999.00 -9999.00 -9999.00 -9999.00 -9999.00 -9999.00 -9999.00 -9999.00 -9999.00 -9999.00 -9999.00 -9999.00 -9999.00 -9999.00 -9999.00 -9999.00 -9999.00 -9999.00 -9999.00 -9999.00 -9999.00 -9999.00 -9999.00 -9999.00 -9999.00 -9999.00 -9999.00 -9999.00 -9999.00 -9999.00 -9999.00 -9999.00 -9999.00 -9999.00 -9999.00 -9999.00 -9999.00 -9999.00 -9999.00 -9999.00 -9999.00 -9999.00 -9999.00 -9999.00 -9999.00 -9999.00 -9999.00 -9999.00 -9999.00 -9999.00 -9999.00 -9999.00 -9999.00 -9999.00 -9999.00 -16.21 -16.18 -16.12 -16.08 -16.00 -15.91 -15.86 -15.82 -15.75 -15.69 -15.60 -15.54 -15.46 -15.38 -15.30 -15.23 -15.16 -15.06 -14.94 -14.85 -14.75 -14.64 -14.50 -14.38 -14.26 -14.15 -14.02 -13.90 -13.81 -13.68 -13.50 -13.29 -13.12 -12.96 -12.78 -12.65 -12.45 -12.29 -12.13 -11.97 -11.80 -11.63 -11.44 -11.30 -11.14 -10.96 -10.79 -10.64 -10.47 -10.33 -10.21 -10.07 -9.94 -9.81 -9.69 -9.62 -9.57 -9.48 -9.37 -9.31 -9.21 -9.14 -9.03 -8.95 -8.85 -8.79 -8.70 -8.64 -8.52 -8.45 -8.31 -8.14 -8.01 -7.78 -7.59 -7.30 -7.05 -6.78 -6.62 -6.40 -6.13 -5.87 -5.72 -5.59 -5.51 -5.31 -5.01 -5.00 -4.76 -4.57 -4.35 -4.15 -4.00 -3.80 -3.69 -3.58 -3.46 -3.29 -3.11 -2.93 -2.67 -2.40 -2.09 -1.89 -1.67 -1.50 -1.34 -1.18 -1.09 -0.97 -0.89 -0.84 -0.72 -0.61 -0.52 -0.47 -0.36 -0.24 -0.08 0.07 0.05 -0.12 -0.51 -0.66 -0.80 -0.86 -0.92 -0.97 -0.98 -0.88 -0.80 -0.73 -0.66 -0.57 -0.53 -0.52 -0.50 -0.57 -0.55 -0.45 -0.36 -0.46 -0.43 -0.38 -0.40 -0.38 -0.42 -0.51 -0.42 -0.42 -0.45 -0.38 -0.40 -0.37 -0.34 -0.35 -0.32 -0.27 -0.31 -0.26 -0.28 -0.24 -0.16 -0.13 -0.06 -0.06 -0.11 0.03 0.05 0.09 0.11 0.14 0.16 0.20 0.18 0.23 0.26 0.27 0.30 0.17 0.21 0.23 0.18 0.20 0.08 0.16 0.10 0.08 0.10 0.09 0.16 0.14 0.15 0.17 0.21 0.18 0.29 0.42 0.36 0.43 0.45 0.53 0.59 0.60 0.66 0.66 0.71 0.74 0.76 0.75 0.67 0.66 0.73 0.80 0.87 0.99 1.08 1.12 1.20 1.37 1.62 1.86 2.22 2.39 2.90 3.74 3.57 -9999.00 -9999.00 -9999.00 -9999.00 -9999.00 -9999.00 -9999.00 -9999.00 -9999.00 -9999.00 -9999.00 -9999.00 -9999.00 -9999.00 -9999.00 -9999.00 -9999.00 -9999.00 -9999.00 -9999.00 -9999.00 -9999.00 -9999.00 -9999.00 -9999.00 -9999.00 -9999.00 -9999.00 -9999.00 -9999.00 -9999.00 -9999.00 -9999.00 -9999.00 -9999.00 -9999.00 -9999.00 -9999.00 -9999.00 -9999.00 -9999.00 -9999.00 -9999.00 -9999.00 -9999.00 -9999.00 -9999.00 -9999.00 -9999.00 -9999.00 -9999.00 -9999.00 -9999.00 -9999.00 -9999.00 -9999.00 -9999.00 -9999.00 -9999.00 -9999.00 -9999.00 -9999.00 -9999.00 -9999.00 -9999.00 -9999.00 -9999.00 -9999.00 -9999.00 -9999.00 -9999.00 -9999.00 -9999.00 -9999.00 -9999.00 -9999.00 -9999.00 -9999.00 -9999.00 -9999.00 -9999.00 -9999.00 -9999.00 -9999.00 -9999.00 -9999.00 -9999.00 -9999.00 -9999.00 -9999.00
-9999.00 -9999.00 -9999.00 -9999.00 -9999.00 -9999.00 -9999.00 -9999.00 -9999.00 -9999.00 -9999.00 -9999.00 -9999.00 -9999.00 -9999.00 -9999.00 -9999.00 -9999.00 -9999.00 -9999.00 -9999.00 -9999.00 -9999.00 -9999.00 -9999.00 -9999.00 -9999.00 -9999.00 -9999.00 -9999.00 -9999.00 -9999.00 -9999.00 -9999.00 -9999.00 -9999.00 -9999.00 -9999.00 -9999.00 -9999.00 -9999.00 -9999.00 -9999.00 -9999.00 -9999.00 -9999.00 -9999.00 -9999.00 -9999.00 -9999.00 -9999.00 -9999.00 -9999.00 -9999.00 -9999.00 -9999.00 -16.23 -16.14 -16.14 -16.10 -16.02 -15.95 -15.89 -15.84 -15.79 -15.73 -15.64 -15.58 -15.50 -15.42 -15.34 -15.28 -15.21 -15.12 -15.02 -14.91 -14.82 -14.70 -14.56 -14.44 -14.32 -14.21 -14.09 -13.95 -13.87 -13.74 -13.57 -13.33 -13.17 -13.00 -12.82 -12.70 -12.52 -12.36 -12.20 -12.04 -11.89 -11.72 -11.54 -11.40 -11.22 -11.05 -10.89 -10.73 -10.55 -10.42 -10.28 -10.15 -10.02 -9.88 -9.75 -9.64 -9.57 -9.49 -9.39 -9.32 -9.24 -9.18 -9.06 -8.97 -8.84 -8.76 -8.69 -8.63 -8.51 -8.39 -8.18 -7.93 -7.75 -7.57 -7.35 -7.17 -6.87 -6.53 -6.32 -6.19 -5.98 -5.76 -5.59 -5.46 -5.30 -5.19 -4.94 -4.98 -4.74 -4.57 -4.34 -4.15 -3.98 -3.80 -3.63 -3.54 -3.48 -3.25 -3.19 -2.99 -2.80 -2.57 -2.28 -2.04 -1.80 -1.60 -1.42 -1.26 -1.17 -1.05 -0.95 -0.88 -0.77 -0.65 -0.55 -0.55 -0.43 -0.30 -0.18 -0.07 -0.06 -0.09 -0.25 -0.60 -0.76 -0.79 -0.82 -0.86 -0.94 -0.95 -0.90 -0.84 -0.77 -0.70 -0.63 -0.58 -0.52 -0.49 -0.51 -0.52 -0.51 -0.37 -0.41 -0.38 -0.31 -0.35 -0.33 -0.26 -0.27 -0.35 -0.38 -0.39 -0.27 -0.29 -0.24 -0.19 -0.19 -0.19 -0.16 -0.16 -0.07 -0.09 -0.02 -0.02 0.00 0.00 -0.03 0.11 0.12 0.13 0.22 0.27 0.35 0.30 0.43 0.28 0.33 0.40 0.42 0.42 0.39 0.34 0.41 0.37 0.35 0.27 0.27 0.28 0.31 0.32 0.27 0.29 0.41 0.31 0.35 0.36 0.36 0.44 0.53 0.67 0.60 0.65 0.70 0.73 0.73 0.78 0.86 0.91 0.83 0.82 0.75 0.77 0.77 0.87 0.93 1.00 1.08 1.19 1.32 1.53 1.75 2.19 2.35 2.72 3.76 4.01 -9999.00 -9999.00 -9999.00 -9999.00 -9999.00 -9999.00 -9999.00 -9999.00 -9999.00 -9999.00 -9999.00 -9999.00 -9999.00 -9999.00 -9999.00 -9999.00 -9999.00 -9999.00 -9999.00 -9999.00 -9999.00 -9999.00 -9999.00 -9999.00 -9999.00 -9999.00 -9999.00 -9999.00 -9999.00 -9999.00 -9999.00 -9999.00 -9999.00 -9999.00 -9999.00 -9999.00 -9999.00 -9999.00 -9999.00 -9999.00 -9999.00 -9999.00 -9999.00 -9999.00 -9999.00 -9999.00 -9999.00 -9999.00 -9999.00 -9999.00 -9999.00 -9999.00 -9999.00 -9999.00 -9999.00 -9999.00 -9999.00 -9999.00 -9999.00 -9999.00 -9999.00 -9999.00 -9999.00 -9999.00 -9999.00 -9999.00 -9999.00 -9999.00 -9999.00 -9999.00 -9999.00 -9999.00 -9999.00 -9999.00 -9999.00 -9999.00 -9999.00 -9999.00 -9999.00 -9999.00 -9999.00 -9999.00 -9999.00 -9999.00 -9999.00 -9999.00 -9999.00 -9999.00 -9999.00 -9999.00 -9999.00 -9999.00
-9999.00 -9999.00 -9999.00 -9999.00 -9999.00 -9999.00 -9999.00 -9999.00 -9999.00 -9999.00 -9999.00 -9999.00 -9999.00 -9999.00 -9999.00 -9999.00 -9999.00 -9999.00 -9999.00 -9999.00 -9999.00 -9999.00 -9999.00 -9999.00 -9999.00 -9999.00 -9999.00 -9999.00 -9999.00 -9999.00 -9999.00 -9999.00 -9999.00 -9999.00 -9999.00 -9999.00 -9999.00 -9999.00 -9999.00 -9999.00 -9999.00 -9999.00 -9999.00 -9999.00 -9999.00 -9999.00 -9999.00 -9999.00 -9999.00 -9999.00 -9999.00 -9999.00 -9999.00 -9999.00 -16.32 -16.24 -16.19 -16.16 -16.11 -16.05 -15.99 -15.92 -15.88 -15.81 -15.75 -15.68 -15.63 -15.54 -15.47 -15.39 -15.32 -15.25 -15.18 -15.06 -14.97 -14.89 -14.76 -14.62 -14.50 -14.38 -14.26 -14.15 -14.05 -13.92 -13.79 -13.62 -13.39 -13.21 -13.03 -12.87 -12.74 -12.57 -12.42 -12.26 -12.11 -11.99 -11.82 -11.65 -11.49 -11.33 -11.15 -10.98 -10.82 -10.65 -10.50 -10.35 -10.22 -10.09 -9.95 -9.83 -9.71 -9.62 -9.51 -9.40 -9.34 -9.27 -9.18 -9.09 -8.99 -8.86 -8.77 -8.68 -8.62 -8.51 -8.32 -8.04 -7.71 -7.49 -7.32 -7.09 -7.01 -6.73 -6.34 -6.06 -5.96 -5.82 -5.68 -5.56 -5.42 -5.26 -5.15 -4.86 -4.95 -4.75 -4.59 -4.37 -4.14 -3.97 -3.82 -3.71 -3.55 -3.49 -3.30 -3.26 -3.00 -2.91 -2.68 -2.47 -2.21 -1.98 -1.73 -1.56 -1.38 -1.25 -1.13 -1.01 -0.93 -0.84 -0.74 -0.62 -0.52 -0.48 -0.35 -0.23 -0.07 -0.04 -0.10 -0.18 -0.34 -0.63 -0.79 -0.79 -0.80 -0.86 -0.91 -0.98 -0.95 -0.88 -0.81 -0.78 -0.79 -0.72 -0.59 -0.47 -0.53 -0.56 -0.57 -0.42 -0.37 -0.45 -0.38 -0.25 -0.21 -0.14 -0.26 -0.21 -0.22 -0.25 -0.25 -0.20 -0.18 -0.12 -0.05 -0.02 -0.04 0.08 0.02 0.02 0.03 0.04 0.08 0.10 0.10 0.25 0.21 0.24 0.30 0.31 0.43 0.48 0.49 0.56 0.53 0.47 0.50 0.55 0.49 0.48 0.55 0.51 0.52 0.45 0.45 0.43 0.41 0.54 0.47 0.46 0.55 0.52 0.52 0.52 0.56 0.63 0.66 0.74 0.74 0.83 0.86 0.91 0.92 0.97 1.03 0.97 0.92 0.91 0.85 0.76 0.86 0.96 1.07 1.14 1.34 1.54 1.80 2.09 2.35 2.67 3.17 4.13 -9999.00 -9999.00 -9999.00 -9999.00 -9999.00 -9999.00 -9999.00 -9999.00 -9999.00 -9999.00 -9999.00 -9999.00 -9999.00 -9999.00 -9999.00 -9999.00 -9999.00 -9999.00 -9999.00 -9999.00 -9999.00 -9999.00 -9999.00 -9999.00 -9999.00 -9999.00 -9999.00 -9999.00 -9999.00 -9999.00 -9999.00 -9999.00 -9999.00 -9999.00 -9999.00 -9999.00 -9999.00 -9999.00 -9999.00 -9999.00 -9999.00 -9999.00 -9999.00 -9999.00 -9999.00 -9999.00 -9999.00 -9999.00 -9999.00 -9999.00 -9999.00 -9999.00 -9999.00 -9999.00 -9999.00 -9999.00 -9999.00 -9999.00 -9999.00 -9999.00 -9999.00 -9999.00 -9999.00 -9999.00 -9999.00 -9999.00 -9999.00 -9999.00 -9999.00 -9999.00 -9999.00 -9999.00 -9999.00 -9999.00 -9999.00 -9999.00 -9999.00 -9999.00 -9999.00 -9999.00 -9999.00 -9999.00 -9999.00 -9999.00 -9999.00 -9999.00 -9999.00 -9999.00 -9999.00 -9999.00 -9999.00 -9999.00 -9999.00 -9999.00
-9999.00 -9999.00 -9999.00 -9999.00 -9999.00 -9999.00 -9999.00 -9999.00 -9999.00 -9999.00 -9999.00 -9999.00 -9999.00 -9999.00 -9999.00 -9999.00 -9999.00 -9999.00 -9999.00 -9999.00 -9999.00 -9999.00 -9999.00 -9999.00 -9999.00 -9999.00 -9999.00 -9999.00 -9999.00 -9999.00 -9999.00 -9999.00 -9999.00 -9999.00 -9999.00 -9999.00 -9999.00 -9999.00 -9999.00 -9999.00 -9999.00 -9999.00 -9999.00 -9999.00 -9999.00 -9999.00 -9999.00 -9999.00 -9999.00 -9999.00 -9999.00 -9999.00 -9999.00 -16.34 -16.27 -16.23 -16.19 -16.14 -16.08 -16.02 -15.95 -15.91 -15.83 -15.78 -15.72 -15.67 -15.58 -15.51 -15.44 -15.37 -15.29 -15.21 -15.12 -15.03 -14.93 -14.81 -14.68 -14.56 -14.45 -14.32 -14.19 -14.08 -13.96 -13.85 -13.68 -13.43 -13.26 -13.07 -12.91 -12.78 -12.62 -12.47 -12.33 -12.17 -12.07 -11.92 -11.77 -11.60 -11.44 -11.26 -11.09 -10.91 -10.74 -10.59 -10.43 -10.30 -10.17 -10.03 -9.90 -9.78 -9.69 -9.57 -9.45 -9.36 -9.29 -9.18 -9.12 -9.01 -8.88 -8.77 -8.68 -8.57 -8.46 -8.26 -7.90 -7.51 -7.22 -7.06 -6.87 -6.78 -6.51 -6.29 -5.99 -5.74 -5.64 -5.62 -5.52 -5.39 -5.21 -5.10 -4.83 -4.84 -4.79 -4.62 -4.43 -4.17 -3.99 -3.86 -3.78 -3.60 -3.49 -3.35 -3.20 -3.09 -2.91 -2.79 -2.59 -2.38 -2.14 -1.91 -1.69 -1.52 -1.36 -1.26 -1.12 -1.01 -0.90 -0.79 -0.68 -0.57 -0.45 -0.35 -0.29 -0.16 -0.06 -0.07 -0.19 -0.39 -0.61 -0.69 -0.82 -0.77 -0.79 -0.86 -0.92 -0.97 -0.99 -0.97 -0.98 -0.99 -1.00 -0.97 -0.74 -0.52 -0.49 -0.55 -0.56 -0.55 -0.38 -0.35 -0.29 -0.14 -0.07 -0.11 -0.15 -0.10 -0.05 -0.11 -0.08 -0.07 -0.01 0.03 0.09 0.06 0.03 0.10 0.19 0.13 0.17 0.13 0.18 0.19 0.24 0.33 0.35 0.39 0.46 0.54 0.53 0.64 0.61 0.69 0.66 0.72 0.65 0.66 0.69 0.69 0.69 0.67 0.63 0.62 0.57 0.57 0.60 0.56 0.65 0.63 0.63 0.67 0.69 0.68 0.79 0.88 0.91 0.85 1.00 1.01 1.02 0.99 1.07 1.12 1.15 1.06 1.01 0.99 0.93 0.83 1.00 1.10 1.23 1.42 1.67 2.07 2.32 2.70 3.07 4.15 -9999.00 -9999.00 -9999.00 -9999.00 -9999.00 -9999.00 -9999.00 -9999.00 -9999.00 -9999.00 -9999.00 -9999.00 -9999.00 -9999.00 -9999.00 -9999.00 -9999.00 -9999.00 -9999.00 -9999.00 -9999.00 -9999.00 -9999.00 -9999.00 -9999.00 -9999.00 -9999.00 -9999.00 -9999.00 -9999.00 -9999.00 -9999.00 -9999.00 -9999.00 -9999.00 -9999.00 -9999.00 -9999.00 -9999.00 -9999.00 -9999.00 -9999.00 -9999.00 -9999.00 -9999.00 -9999.00 -9999.00 -9999.00 -9999.00 -9999.00 -9999.00 -9999.00 -9999.00 -9999.00 -9999.00 -9999.00 -9999.00 -9999.00 -9999.00 -9999.00 -9999.00 -9999.00 -9999.00 -9999.00 -9999.00 -9999.00 -9999.00 -9999.00 -9999.00 -9999.00 -9999.00 -9999.00 -9999.00 -9999.00 -9999.00 -9999.00 -9999.00 -9999.00 -9999.00 -9999.00 -9999.00 -9999.00 -9999.00 -9999.00 -9999.00 -9999.00 -9999.00 -9999.00 -9999.00 -9999.00 -9999.00 -9999.00 -9999.00 -9999.00 -9999.00 -9999.00
-9999.00 -9999.00 -9999.00 -9999.00 -9999.00 -9999.00 -9999.00 -9999.00 -9999.00 -9999.00 -9999.00 -9999.00 -9999.00 -9999.00 -9999.00 -9999.00 -9999.00 -9999.00 -9999.00 -9999.00 -9999.00 -9999.00 -9999.00 -9999.00 -9999.00 -9999.00 -9999.00 -9999.00 -9999.00 -9999.00 -9999.00 -9999.00 -9999.00 -9999.00 -9999.00 -9999.00 -9999.00 -9999.00 -9999.00 -9999.00 -9999.00 -9999.00 -9999.00 -9999.00 -9999.00 -9999.00 -9999.00 -9999.00 -9999.00 -9999.00 -9999.00 -9999.00 -16.36 -16.29 -16.25 -16.19 -16.15 -16.10 -16.04 -15.99 -15.94 -15.86 -15.81 -15.75 -15.69 -15.61 -15.55 -15.47 -15.43 -15.33 -15.25 -15.19 -15.08 -14.97 -14.87 -14.75 -14.63 -14.50 -14.36 -14.24 -14.13 -14.01 -13.89 -13.75 -13.49 -13.29 -13.12 -12.95 -12.82 -12.66 -12.52 -12.40 -12.24 -12.11 -11.99 -11.87 -11.70 -11.55 -11.37 -11.19 -11.03 -10.84 -10.68 -10.50 -10.38 -10.24 -10.11 -9.98 -9.86 -9.76 -9.64 -9.51 -9.40 -9.32 -9.20 -9.15 -9.03 -8.90 -8.78 -8.67 -8.54 -8.37 -8.13 -7.78 -7.32 -6.98 -6.78 -6.62 -6.51 -6.28 -6.21 -5.89 -5.68 -5.57 -5.53 -5.48 -5.36 -5.16 -5.01 -4.84 -4.65 -4.73 -4.62 -4.41 -4.23 -4.04 -3.83 -3.81 -3.65 -3.48 -3.38 -3.17 -3.08 -2.93 -2.90 -2.76 -2.52 -2.30 -2.07 -1.85 -1.64 -1.48 -1.34 -1.25 -1.11 -1.00 -0.88 -0.74 -0.61 -0.55 -0.43 -0.28 -0.21 -0.14 -0.20 -0.32 -0.45 -0.69 -0.67 -0.66 -0.72 -0.80 -0.81 -0.86 -0.87 -0.93 -0.99 -1.12 -1.16 -1.20 -1.20 -1.11 -0.98 -0.68 -0.62 -0.58 -0.62 -0.67 -0.49 -0.33 -0.27 -0.14 -0.09 -0.03 -0.11 0.01 0.02 0.09 0.10 0.14 0.16 0.19 0.18 0.20 0.19 0.26 0.31 0.26 0.28 0.29 0.34 0.33 0.36 0.40 0.45 0.61 0.60 0.66 0.69 0.66 0.75 0.76 0.82 0.80 0.85 0.79 0.88 0.86 0.83 0.81 0.83 0.80 0.74 0.70 0.69 0.69 0.78 0.76 0.71 0.82 0.79 0.87 0.85 0.94 0.96 1.02 1.10 1.22 1.17 1.14 1.19 1.24 1.23 1.14 1.11 1.07 1.01 1.12 1.24 1.40 1.77 2.10 2.37 2.60 3.25 3.51 3.68 -9999.00 -9999.00 -9999.00 -9999.00 -9999.00 -9999.00 -9999.00 -9999.00 -9999.00 -9999.00 -9999.00 -9999.00 -9999.00 -9999.00 -9999.00 -9999.00 -9999.00 -9999.00 -9999.00 -9999.00 -9999.00 -9999.00 -9999.00 -9999.00 -9999.00 -9999.00 -9999.00 -9999.00 -9999.00 -9999.00 -9999.00 -9999.00 -9999.00 -9999.00 -9999.00 -9999.00 -9999.00 -9999.00 -9999.00 -9999.00 -9999.00 -9999.00 -9999.00 -9999.00 -9999.00 -9999.00 -9999.00 -9999.00 -9999.00 -9999.00 -9999.00 -9999.00 -9999.00 -9999.00 -9999.00 -9999.00 -9999.00 -9999.00 -9999.00 -9999.00 -9999.00 -9999.00 -9999.00 -9999.00 -9999.00 -9999.00 -9999.00 -9999.00 -9999.00 -9999.00 -9999.00 -9999.00 -9999.00 -9999.00 -9999.00 -9999.00 -9999.00 -9999.00 -9999.00 -9999.00 -9999.00 -9999.00 -9999.00 -9999.00 -9999.00 -9999.00 -9999.00 -9999.00 -9999.00 -9999.00 -9999.00 -9999.00 -9999.00 -9999.00 -9999.00 -9999.00 -9999.00
-9999.00 -9999.00 -9999.00 -9999.00 -9999.00 -9999.00 -9999.00 -9999.00 -9999.00 -9999.00 -9999.00 -9999.00 -9999.00 -9999.00 -9999.00 -9999.00 -9999.00 -9999.00 -9999.00 -9999.00 -9999.00 -9999.00 -9999.00 -9999.00 -9999.00 -9999.00 -9999.00 -9999.00 -9999.00 -9999.00 -9999.00 -9999.00 -9999.00 -9999.00 -9999.00 -9999.00 -9999.00 -9999.00 -9999.00 -9999.00 -9999.00 -9999.00 -9999.00 -9999.00 -9999.00 -9999.00 -9999.00 -9999.00 -9999.00 -9999.00 -9999.00 -16.39 -16.33 -16.27 -16.24 -16.17 -16.13 -16.07 -16.03 -15.97 -15.90 -15.84 -15.78 -15.73 -15.65 -15.59 -15.52 -15.47 -15.37 -15.31 -15.23 -15.13 -15.03 -14.92 -14.80 -14.70 -14.56 -14.42 -14.31 -14.18 -14.06 -13.95 -13.80 -13.59 -13.36 -13.17 -13.01 -12.87 -12.71 -12.57 -12.47 -12.30 -12.19 -12.06 -11.93 -11.77 -11.64 -11.47 -11.30 -11.14 -10.94 -10.78 -10.60 -10.47 -10.31 -10.18 -10.05 -9.93 -9.83 -9.70 -9.59 -9.45 -9.36 -9.26 -9.19 -9.06 -8.93 -8.78 -8.67 -8.53 -8.31 -8.02 -7.67 -7.27 -6.82 -6.49 -6.38 -6.23 -6.10 -6.05 -5.80 -5.63 -5.50 -5.42 -5.38 -5.28 -5.12 -4.95 -4.82 -4.59 -4.63 -4.52 -4.38 -4.23 -4.07 -3.83 -3.83 -3.70 -3.51 -3.41 -3.20 -3.06 -2.95 -2.79 -2.68 -2.60 -2.43 -2.19 -1.97 -1.75 -1.57 -1.43 -1.28 -1.19 -1.09 -0.97 -0.84 -0.70 -0.57 -0.52 -0.42 -0.29 -0.22 -0.29 -0.48 -0.61 -0.75 -0.65 -0.69 -0.66 -0.70 -0.78 -0.77 -0.75 -0.78 -0.79 -0.99 -1.14 -1.21 -1.24 -1.22 -1.19 -1.11 -0.91 -0.65 -0.63 -0.64 -0.67 -0.48 -0.34 -0.28 -0.28 -0.15 -0.11 0.01 0.05 0.20 0.17 0.14 0.14 0.23 0.31 0.23 0.29 0.39 0.42 0.45 0.50 0.42 0.44 0.45 0.41 0.48 0.52 0.56 0.64 0.71 0.76 0.81 0.85 0.91 0.92 0.97 1.00 0.99 0.95 0.98 0.98 1.01 0.99 0.99 0.93 0.87 0.80 0.79 0.81 0.81 0.92 0.86 0.88 0.87 0.94 0.92 1.04 1.12 1.20 1.26 1.34 1.36 1.29 1.31 1.36 1.37 1.31 1.28 1.33 1.37 1.50 1.70 2.01 2.36 2.58 3.00 3.64 3.69 -9999.00 -9999.00 -9999.00 -9999.00 -9999.00 -9999.00 -9999.00 -9999.00 -9999.00 -9999.00 -9999.00 -9999.00 -9999.00 -9999.00 -9999.00 -9999.00 -9999.00 -9999.00 -9999.00 -9999.00 -9999.00 -9999.00 -9999.00 -9999.00 -9999.00 -9999.00 -9999.00 -9999.00 -9999.00 -9999.00 -9999.00 -9999.00 -9999.00 -9999.00 -9999.00 -9999.00 -9999.00 -9999.00 -9999.00 -9999.00 -9999.00 -9999.00 -9999.00 -9999.00 -9999.00 -9999.00 -9999.00 -9999.00 -9999.00 -9999.00 -9999.00 -9999.00 -9999.00 -9999.00 -9999.00 -9999.00 -9999.00 -9999.00 -9999.00 -9999.00 -9999.00 -9999.00 -9999.00 -9999.00 -9999.00 -9999.00 -9999.00 -9999.00 -9999.00 -9999.00 -9999.00 -9999.00 -9999.00 -9999.00 -9999.00 -9999.00 -9999.00 -9999.00 -9999.00 -9999.00 -9999.00 -9999.00 -9999.00 -9999.00 -9999.00 -9999.00 -9999.00 -9999.00 -9999.00 -9999.00 -9999.00 -9999.00 -9999.00 -9999.00 -9999.00 -9999.00 -9999.00 -9999.00 -9999.00
-9999.00 -9999.00 -9999.00 -9999.00 -9999.00 -9999.00 -9999.00 -9999.00 -9999.00 -9999.00 -9999.00 -9999.00 -9999.00 -9999.00 -9999.00 -9999.00 -9999.00 -9999.00 -9999.00 -9999.00 -9999.00 -9999.00 -9999.00 -9999.00 -9999.00 -9999.00 -9999.00 -9999.00 -9999.00 -9999.00 -9999.00 -9999.00 -9999.00 -9999.00 -9999.00 -9999.00 -9999.00 -9999.00 -9999.00 -9999.00 -9999.00 -9999.00 -9999.00 -9999.00 -9999.00 -9999.00 -9999.00 -9999.00 -9999.00 -9999.00 -16.42 -16.36 -16.31 -16.27 -16.21 -16.16 -16.10 -16.06 -16.00 -15.93 -15.88 -15.83 -15.76 -15.69 -15.63 -15.56 -15.51 -15.42 -15.36 -15.26 -15.18 -15.08 -14.96 -14.85 -14.75 -14.62 -14.48 -14.36 -14.24 -14.11 -13.98 -13.86 -13.67 -13.43 -13.23 -13.06 -12.92 -12.78 -12.63 -12.51 -12.37 -12.25 -12.14 -12.00 -11.84 -11.72 -11.56 -11.40 -11.25 -11.06 -10.87 -10.72 -10.58 -10.42 -10.25 -10.13 -10.00 -9.90 -9.77 -9.65 -9.52 -9.42 -9.33 -9.23 -9.11 -8.99 -8.81 -8.67 -8.55 -8.23 -7.92 -7.50 -7.19 -6.76 -6.46 -6.23 -6.02 -5.89 -5.82 -5.73 -5.57 -5.44 -5.32 -5.28 -5.15 -5.01 -4.86 -4.84 -4.58 -4.48 -4.37 -4.33 -4.21 -4.02 -3.88 -3.80 -3.72 -3.55 -3.44 -3.24 -3.09 -2.95 -2.82 -2.67 -2.62 -2.47 -2.20 -2.01 -1.82 -1.60 -1.48 -1.33 -1.22 -1.15 -1.07 -0.94 -0.78 -0.69 -0.54 -0.52 -0.43 -0.34 -0.36 -0.46 -0.69 -0.69 -0.66 -0.66 -0.63 -0.59 -0.58 -0.59 -0.59 -0.72 -0.67 -0.64 -0.94 -1.02 -1.18 -1.22 -1.24 -1.22 -1.18 -1.06 -0.83 -0.64 -0.65 -0.62 -0.50 -0.41 -0.33 -0.25 -0.16 -0.05 0.08 0.10 0.18 0.21 0.23 0.25 0.28 0.37 0.48 0.45 0.51 0.51 0.54 0.54 0.58 0.57 0.60 0.60 0.60 0.62 0.65 0.79 0.86 0.89 0.99 1.05 1.02 1.08 1.16 1.15 1.12 1.19 1.15 1.16 1.15 1.15 1.11 1.04 0.97 0.91 0.89 0.91 0.93 0.96 0.95 0.92 0.96 0.99 1.00 1.14 1.28 1.33 1.42 1.47 1.45 1.45 1.53 1.55 1.62 1.70 1.69 1.79 2.03 2.15 2.50 2.78 3.12 3.77 3.80 -9999.00 -9999.00 -9999.00 -9999.00 -9999.00 -9999.00 -9999.00 -9999.00 -9999.00 -9999.00 -9999.00 -9999.00 -9999.00 -9999.00 -9999.00 -9999.00 -9999.00 -9999.00 -9999.00 -9999.00 -9999.00 -9999.00 -9999.00 -9999.00 -9999.00 -9999.00 -9999.00 -9999.00 -9999.00 -9999.00 -9999.00 -9999.00 -9999.00 -9999.00 -9999.00 -9999.00 -9999.00 -9999.00 -9999.00 -9999.00 -9999.00 -9999.00 -9999.00 -9999.00 -9999.00 -9999.00 -9999.00 -9999.00 -9999.00 -9999.00 -9999.00 -9999.00 -9999.00 -9999.00 -9999.00 -9999.00 -9999.00 -9999.00 -9999.00 -9999.00 -9999.00 -9999.00 -9999.00 -9999.00 -9999.00 -9999.00 -9999.00 -9999.00 -9999.00 -9999.00 -9999.00 -9999.00 -9999.00 -9999.00 -9999.00 -9999.00 -9999.00 -9999.00 -9999.00 -9999.00 -9999.00 -9999.00 -9999.00 -9999.00 -9999.00 -9999.00 -9999.00 -9999.00 -9999.00 -9999.00 -9999.00 -9999.00 -9999.00 -9999.00 -9999.00 -9999.00 -9999.00 -9999.00 -9999.00 -9999.00 -9999.00
-9999.00 -9999.00 -9999.00 -9999.00 -9999.00 -9999.00 -9999.00 -9999.00 -9999.00 -9999.00 -9999.00 -9999.00 -9999.00 -9999.00 -9999.00 -9999.00 -9999.00 -9999.00 -9999.00 -9999.00 -9999.00 -9999.00 -9999.00 -9999.00 -9999.00 -9999.00 -9999.00 -9999.00 -9999.00 -9999.00 -9999.00 -9999.00 -9999.00 -9999.00 -9999.00 -9999.00 -9999.00 -9999.00 -9999.00 -9999.00 -9999.00 -9999.00 -9999.00 -9999.00 -9999.00 -9999.00 -9999.00 -9999.00 -16.53 -16.46 -16.40 -16.34 -16.30 -16.24 -16.18 -16.13 -16.09 -16.03 -15.97 -15.91 -15.86 -15.80 -15.73 -15.67 -15.61 -15.54 -15.47 -15.40 -15.30 -15.24 -15.14 -15.02 -14.90 -14.81 -14.69 -14.54 -14.43 -14.31 -14.18 -14.05 -13.91 -13.75 -13.50 -13.28 -13.13 -12.98 -12.85 -12.67 -12.58 -12.45 -12.32 -12.20 -12.07 -11.91 -11.78 -11.63 -11.49 -11.33 -11.17 -10.98 -10.85 -10.69 -10.52 -10.36 -10.20 -10.08 -9.97 -9.83 -9.72 -9.58 -9.48 -9.37 -9.28 -9.16 -9.05 -8.88 -8.75 -8.58 -8.24 -7.82 -7.37 -7.04 -6.70 -6.41 -6.17 -5.97 -5.79 -5.61 -5.62 -5.52 -5.39 -5.21 -5.18 -5.03 -4.91 -4.76 -4.66 -4.59 -4.31 -4.26 -4.28 -4.06 -3.97 -3.90 -3.71 -3.68 -3.54 -3.48 -3.30 -3.11 -2.97 -2.84 -2.71 -2.55 -2.47 -2.35 -2.10 -1.84 -1.66 -1.47 -1.36 -1.21 -1.15 -1.06 -1.00 -0.94 -0.78 -0.60 -0.45 -0.55 -0.58 -0.62 -0.63 -0.68 -0.73 -0.63 -0.57 -0.50 -0.50 -0.43 -0.39 -0.44 -0.40 -0.47 -0.52 -0.53 -0.67 -0.72 -0.88 -1.23 -1.25 -1.23 -1.21 -1.19 -1.00 -0.80 -0.66 -0.65 -0.51 -0.49 -0.38 -0.22 -0.15 -0.11 -0.01 0.04 0.17 0.32 0.34 0.30 0.38 0.44 0.52 0.60 0.61 0.60 0.66 0.64 0.77 0.77 0.76 0.77 0.73 0.78 0.78 0.82 0.87 1.02 1.10 1.18 1.20 1.26 1.29 1.30 1.32 1.34 1.32 1.31 1.30 1.26 1.26 1.12 1.07 1.01 0.99 1.01 1.03 1.07 1.00 1.00 1.08 1.12 1.04 1.21 1.38 1.45 1.51 1.67 1.85 2.02 2.22 2.19 2.48 2.47 2.52 2.99 2.96 3.39 3.69 3.64 3.64 3.65 -9999.00 -9999.00 -9999.00 -9999.00 -9999.00 -9999.00 -9999.00 -9999.00 -9999.00 -9999.00 -9999.00 -9999.00 -9999.00 -9999.00 -9999.00 -9999.00 -9999.00 -9999.00 -9999.00 -9999.00 -9999.00 -9999.00 -9999.00 -9999.00 -9999.00 -9999.00 -9999.00 -9999.00 -9999.00 -9999.00 -9999.00 -9999.00 -9999.00 -9999.00 -9999.00 -9999.00 -9999.00 -9999.00 -9999.00 -9999.00 -9999.00 -9999.00 -9999.00 -9999.00 -9999.00 -9999.00 -9999.00 -9999.00 -9999.00 -9999.00 -9999.00 -9999.00 -9999.00 -9999.00 -9999.00 -9999.00 -9999.00 -9999.00 -9999.00 -9999.00 -9999.00 -9999.00 -9999.00 -9999.00 -9999.00 -9999.00 -9999.00 -9999.00 -9999.00 -9999.00 -9999.00 -9999.00 -9999.00 -9999.00 -9999.00 -9999.00 -9999.00 -9999.00 -9999.00 -9999.00 -9999.00 -9999.00 -9999.00 -9999.00 -9999.00 -9999.00 -9999.00 -9999.00 -9999.00 -9999.00 -9999.00 -9999.00 -9999.00 -9999.00 -9999.00 -9999.00 -9999.00 -9999.00 -9999.00 -9999.00 -9999.00 -9999.00
-9999.00 -9999.00 -9999.00 -9999.00 -9999.00 -9999.00 -9999.00 -9999.00 -9999.00 -9999.00 -9999.00 -9999.00 -9999.00 -9999.00 -9999.00 -9999.00 -9999.00 -9999.00 -9999.00 -9999.00 -9999.00 -9999.00 -9999.00 -9999.00 -9999.00 -9999.00 -9999.00 -9999.00 -9999.00 -9999.00 -9999.00 -9999.00 -9999.00 -9999.00 -9999.00 -9999.00 -9999.00 -9999.00 -9999.00 -9999.00 -9999.00 -9999.00 -9999.00 -9999.00 -9999.00 -9999.00 -9999.00 -16.57 -16.49 -16.42 -16.36 -16.32 -16.28 -16.21 -16.17 -16.11 -16.06 -16.01 -15.94 -15.89 -15.84 -15.77 -15.72 -15.66 -15.59 -15.53 -15.44 -15.35 -15.29 -15.19 -15.09 -14.97 -14.88 -14.75 -14.61 -14.48 -14.38 -14.25 -14.11 -13.98 -13.84 -13.59 -13.35 -13.20 -13.04 -12.90 -12.75 -12.65 -12.51 -12.39 -12.26 -12.16 -11.98 -11.85 -11.71 -11.57 -11.42 -11.26 -11.07 -10.95 -10.79 -10.62 -10.47 -10.31 -10.18 -10.04 -9.86 -9.78 -9.66 -9.53 -9.42 -9.31 -9.22 -9.11 -8.95 -8.82 -8.65 -8.40 -7.97 -7.39 -6.91 -6.60 -6.33 -6.12 -5.93 -5.78 -5.58 -5.56 -5.47 -5.34 -5.12 -5.07 -4.91 -4.79 -4.65 -4.50 -4.47 -4.23 -4.20 -4.12 -3.99 -3.98 -3.87 -3.69 -3.63 -3.50 -3.42 -3.29 -3.09 -2.98 -2.90 -2.80 -2.62 -2.39 -2.32 -2.13 -1.97 -1.72 -1.54 -1.36 -1.23 -1.12 -1.07 -1.00 -0.96 -0.90 -0.81 -0.66 -0.68 -0.75 -0.75 -0.72 -0.70 -0.63 -0.61 -0.46 -0.39 -0.40 -0.32 -0.33 -0.25 -0.30 -0.33 -0.35 -0.35 -0.35 -0.41 -0.45 -0.58 -1.16 -1.27 -1.26 -1.24 -1.22 -1.16 -0.97 -0.81 -0.69 -0.42 -0.37 -0.36 -0.31 -0.19 -0.15 -0.13 0.03 0.25 0.32 0.44 0.41 0.45 0.57 0.63 0.71 0.69 0.73 0.73 0.78 0.77 0.89 0.88 0.89 0.87 0.86 0.92 0.96 1.02 1.15 1.28 1.30 1.31 1.44 1.43 1.50 1.52 1.48 1.47 1.45 1.38 1.38 1.30 1.23 1.18 1.12 1.09 1.11 1.11 1.14 0.99 1.12 1.20 1.26 1.34 1.45 1.65 1.94 2.24 2.47 2.60 2.77 2.94 2.95 3.07 3.37 3.62 3.59 3.58 3.37 -9999.00 -9999.00 -9999.00 -9999.00 -9999.00 -9999.00 -9999.00 -9999.00 -9999.00 -9999.00 -9999.00 -9999.00 -9999.00 -9999.00 -9999.00 -9999.00 -9999.00 -9999.00 -9999.00 -9999.00 -9999.00 -9999.00 -9999.00 -9999.00 -9999.00 -9999.00 -9999.00 -9999.00 -9999.00 -9999.00 -9999.00 -9999.00 -9999.00 -9999.00 -9999.00 -9999.00 -9999.00 -9999.00 -9999.00 -9999.00 -9999.00 -9999.00 -9999.00 -9999.00 -9999.00 -9999.00 -9999.00 -9999.00 -9999.00 -9999.00 -9999.00 -9999.00 -9999.00 -9999.00 -9999.00 -9999.00 -9999.00 -9999.00 -9999.00 -9999.00 -9999.00 -9999.00 -9999.00 -9999.00 -9999.00 -9999.00 -9999.00 -9999.00 -9999.00 -9999.00 -9999.00 -9999.00 -9999.00 -9999.00 -9999.00 -9999.00 -9999.00 -9999.00 -9999.00 -9999.00 -9999.00 -9999.00 -9999.00 -9999.00 -9999.00 -9999.00 -9999.00 -9999.00 -9999.00 -9999.00 -9999.00 -9999.00 -9999.00 -9999.00 -9999.00 -9999.00 -9999.00 -9999.00 -9999.00 -9999.00 -9999.00 -9999.00 -9999.00 -9999.00 -9999.00 -9999.00
-9999.00 -9999.00 -9999.00 -9999.00 -9999.00 -9999.00 -9999.00 -9999.00 -9999.00 -9999.00 -9999.00 -9999.00 -9999.00 -9999.00 -9999.00 -9999.00 -9999.00 -9999.00 -9999.00 -9999.00 -9999.00 -9999.00 -9999.00 -9999.00 -9999.00 -9999.00 -9999.00 -9999.00 -9999.00 -9999.00 -9999.00 -9999.00 -9999.00 -9999.00 -9999.00 -9999.00 -9999.00 -9999.00 -9999.00 -9999.00 -9999.00 -9999.00 -9999.00 -9999.00 -9999.00 -9999.00 -16.59 -16.53 -16.46 -16.39 -16.36 -16.31 -16.25 -16.20 -16.15 -16.09 -16.04 -15.98 -15.93 -15.88 -15.82 -15.76 -15.71 -15.63 -15.57 -15.49 -15.40 -15.33 -15.24 -15.14 -15.03 -14.93 -14.83 -14.68 -14.53 -14.45 -14.31 -14.18 -14.05 -13.91 -13.71 -13.46 -13.26 -13.12 -12.97 -12.82 -12.71 -12.57 -12.45 -12.32 -12.21 -12.05 -11.93 -11.78 -11.65 -11.50 -11.34 -11.16 -11.03 -10.88 -10.74 -10.58 -10.42 -10.28 -10.14 -9.96 -9.85 -9.73 -9.58 -9.48 -9.37 -9.26 -9.15 -9.01 -8.87 -8.71 -8.52 -8.19 -7.65 -7.12 -6.69 -6.27 -6.05 -5.90 -5.74 -5.59 -5.50 -5.39 -5.29 -5.06 -4.94 -4.78 -4.71 -4.55 -4.35 -4.35 -4.15 -4.10 -4.08 -3.98 -3.90 -3.79 -3.69 -3.57 -3.47 -3.33 -3.19 -3.03 -2.95 -2.88 -2.71 -2.60 -2.47 -2.30 -2.17 -1.97 -1.83 -1.63 -1.43 -1.26 -1.14 -1.05 -0.99 -0.94 -0.86 -0.84 -0.80 -0.77 -0.71 -0.74 -0.74 -0.62 -0.54 -0.46 -0.46 -0.32 -0.29 -0.25 -0.25 -0.20 -0.12 -0.11 -0.08 -0.19 -0.15 -0.23 -0.25 -0.21 -0.28 -0.75 -1.11 -1.30 -1.27 -1.24 -1.19 -1.13 -1.10 -0.99 -0.60 -0.41 -0.33 -0.31 -0.26 -0.13 -0.09 0.00 0.16 0.32 0.42 0.52 0.58 0.62 0.68 0.77 0.85 0.77 0.85 0.89 0.93 0.96 1.00 1.02 1.05 1.04 1.07 1.10 1.19 1.22 1.35 1.53 1.69 1.84 2.07 2.10 2.07 1.95 1.84 1.77 1.51 1.43 1.38 1.33 1.28 1.23 1.18 1.21 1.25 1.22 1.27 1.32 1.45 1.67 1.97 2.28 2.38 2.73 2.80 3.13 3.30 3.80 3.77 3.90 3.71 3.51 -9999.00 -9999.00 -9999.00 -9999.00 -9999.00 -9999.00 -9999.00 -9999.00 -9999.00 -9999.00 -9999.00 -9999.00 -9999.00 -9999.00 -9999.00 -9999.00 -9999.00 -9999.00 -9999.00 -9999.00 -9999.00 -9999.00 -9999.00 -9999.00 -9999.00 -9999.00 -9999.00 -9999.00 -9999.00 -9999.00 -9999.00 -9999.00 -9999.00 -9999.00 -9999.00 -9999.00 -9999.00 -9999.00 -9999.00 -9999.00 -9999.00 -9999.00 -9999.00 -9999.00 -9999.00 -9999.00 -9999.00 -9999.00 -9999.00 -9999.00 -9999.00 -9999.00 -9999.00 -9999.00 -9999.00 -9999.00 -9999.00 -9999.00 -9999.00 -9999.00 -9999.00 -9999.00 -9999.00 -9999.00 -9999.00 -9999.00 -9999.00 -9999.00 -9999.00 -9999.00 -9999.00 -9999.00 -9999.00 -9999.00 -9999.00 -9999.00 -9999.00 -9999.00 -9999.00 -9999.00 -9999.00 -9999.00 -9999.00 -9999.00 -9999.00 -9999.00 -9999.00 -9999.00 -9999.00 -9999.00 -9999.00 -9999.00 -9999.00 -9999.00 -9999.00 -9999.00 -9999.00 -9999.00 -9999.00 -9999.00 -9999.00 -9999.00 -9999.00 -9999.00 -9999.00 -9999.00 -9999.00 -9999.00 -9999.00 -9999.00
-9999.00 -9999.00 -9999.00 -9999.00 -9999.00 -9999.00 -9999.00 -9999.00 -9999.00 -9999.00 -9999.00 -9999.00 -9999.00 -9999.00 -9999.00 -9999.00 -9999.00 -9999.00 -9999.00 -9999.00 -9999.00 -9999.00 -9999.00 -9999.00 -9999.00 -9999.00 -9999.00 -9999.00 -9999.00 -9999.00 -9999.00 -9999.00 -9999.00 -9999.00 -9999.00 -9999.00 -9999.00 -9999.00 -9999.00 -9999.00 -9999.00 -9999.00 -9999.00 -9999.00 -9999.00 -16.62 -16.58 -16.51 -16.43 -16.39 -16.35 -16.28 -16.23 -16.19 -16.13 -16.07 -16.02 -15.96 -15.91 -15.86 -15.81 -15.75 -15.68 -15.61 -15.53 -15.44 -15.37 -15.27 -15.19 -15.10 -15.01 -14.90 -14.76 -14.61 -14.50 -14.39 -14.25 -14.12 -13.98 -13.82 -13.57 -13.34 -13.19 -13.02 -12.89 -12.76 -12.63 -12.50 -12.39 -12.27 -12.12 -12.00 -11.85 -11.73 -11.58 -11.43 -11.25 -11.11 -10.97 -10.83 -10.68 -10.53 -10.39 -10.24 -10.07 -9.94 -9.83 -9.69 -9.55 -9.44 -9.32 -9.20 -9.08 -8.95 -8.78 -8.62 -8.37 -7.89 -7.39 -6.94 -6.49 -6.16 -5.87 -5.70 -5.62 -5.47 -5.35 -5.27 -5.14 -4.92 -4.74 -4.62 -4.44 -4.23 -4.26 -4.08 -4.04 -3.96 -3.95 -3.81 -3.65 -3.65 -3.52 -3.38 -3.25 -3.11 -2.95 -2.87 -2.80 -2.74 -2.61 -2.50 -2.30 -2.16 -2.02 -1.90 -1.62 -1.50 -1.33 -1.17 -1.06 -0.96 -0.92 -0.86 -0.80 -0.75 -0.71 -0.65 -0.61 -0.60 -0.54 -0.47 -0.39 -0.33 -0.24 -0.22 -0.12 -0.09 -0.06 0.00 0.07 0.06 0.06 -0.02 0.01 -0.02 -0.06 -0.18 -0.10 -0.40 -0.68 -1.17 -1.30 -1.25 -1.21 -1.14 -1.09 -1.05 -0.83 -0.57 -0.26 -0.27 -0.21 -0.13 -0.07 -0.03 0.10 0.25 0.49 0.50 0.58 0.68 0.76 0.86 0.87 0.84 0.90 0.95 0.99 1.04 1.13 1.24 1.21 1.20 1.20 1.27 1.42 1.61 1.92 2.17 2.45 2.77 2.83 3.01 2.85 2.80 2.77 2.51 2.23 1.84 1.57 1.44 1.37 1.31 1.32 1.33 1.42 1.56 1.78 1.91 2.25 2.54 2.66 2.85 3.12 3.51 3.94 3.65 3.68 3.60 -9999.00 -9999.00 -9999.00 -9999.00 -9999.00 -9999.00 -9999.00 -9999.00 -9999.00 -9999.00 -9999.00 -9999.00 -9999.00 -9999.00 -9999.00 -9999.00 -9999.00 -9999.00 -9999.00 -9999.00 -9999.00 -9999.00 -9999.00 -9999.00 -9999.00 -9999.00 -9999.00 -9999.00 -9999.00 -9999.00 -9999.00 -9999.00 -9999.00 -9999.00 -9999.00 -9999.00 -9999.00 -9999.00 -9999.00 -9999.00 -9999.00 -9999.00 -9999.00 -9999.00 -9999.00 -9999.00 -9999.00 -9999.00 -9999.00 -9999.00 -9999.00 -9999.00 -9999.00 -9999.00 -9999.00 -9999.00 -9999.00 -9999.00 -9999.00 -9999.00 -9999.00 -9999.00 -9999.00 -9999.00 -9999.00 -9999.00 -9999.00 -9999.00 -9999.00 -9999.00 -9999.00 -9999.00 -9999.00 -9999.00 -9999.00 -9999.00 -9999.00 -9999.00 -9999.00 -9999.00 -9999.00 -9999.00 -9999.00 -9999.00 -9999.00 -9999.00 -9999.00 -9999.00 -9999.00 -9999.00 -9999.00 -9999.00 -9999.00 -9999.00 -9999.00 -9999.00 -9999.00 -9999.00 -9999.00 -9999.00 -9999.00 -9999.00 -9999.00 -9999.00 -9999.00 -9999.00 -9999.00 -9999.00 -9999.00 -9999.00 -9999.00 -9999.00 -9999.00 -9999.00
-9999.00 -9999.00 -9999.00 -9999.00 -9999.00 -9999.00 -9999.00 -9999.00 -9999.00 -9999.00 -9999.00 -9999.00 -9999.00 -9999.00 -9999.00 -9999.00 -9999.00 -9999.00 -9999.00 -9999.00 -9999.00 -9999.00 -9999.00 -9999.00 -9999.00 -9999.00 -9999.00 -9999.00 -9999.00 -9999.00 -9999.00 -9999.00 -9999.00 -9999.00 -9999.00 -9999.00 -9999.00 -9999.00 -9999.00 -9999.00 -9999.00 -9999.00 -9999.00 -16.70 -16.67 -16.63 -16.57 -16.50 -16.44 -16.38 -16.32 -16.26 -16.23 -16.15 -16.11 -16.04 -16.00 -15.94 -15.89 -15.84 -15.79 -15.72 -15.65 -15.57 -15.49 -15.41 -15.35 -15.25 -15.15 -15.08 -14.97 -14.84 -14.70 -14.59 -14.48 -14.34 -14.20 -14.05 -13.91 -13.67 -13.43 -13.26 -13.09 -12.96 -12.82 -12.70 -12.56 -12.46 -12.33 -12.19 -12.07 -11.93 -11.79 -11.66 -11.51 -11.34 -11.20 -11.05 -10.92 -10.77 -10.63 -10.48 -10.33 -10.16 -10.03 -9.90 -9.77 -9.64 -9.52 -9.40 -9.27 -9.15 -9.02 -8.84 -8.69 -8.50 -8.14 -7.63 -7.20 -6.73 -6.35 -6.04 -5.74 -5.62 -5.44 -5.32 -5.22 -5.14 -4.98 -4.85 -4.65 -4.39 -4.11 -4.10 -3.99 -3.95 -3.94 -3.86 -3.74 -3.70 -3.64 -3.49 -3.40 -3.14 -3.04 -2.87 -2.79 -2.71 -2.65 -2.53 -2.44 -2.34 -2.16 -2.01 -1.87 -1.73 -1.48 -1.35 -1.25 -1.12 -0.95 -0.84 -0.78 -0.74 -0.71 -0.63 -0.61 -0.58 -0.46 -0.46 -0.39 -0.38 -0.20 -0.14 -0.09 0.03 0.02 0.08 0.15 0.19 0.24 0.22 0.27 0.21 0.19 0.12 0.04 -0.07 -0.08 -0.02 -0.09 -0.62 -1.24 -1.26 -1.24 -1.20 -1.12 -1.04 -0.93 -0.80 -0.52 -0.16 -0.21 -0.06 -0.05 0.03 0.02 0.15 0.41 0.53 0.66 0.74 0.76 0.86 0.88 0.94 0.96 1.01 1.06 1.15 1.26 1.34 1.38 1.35 1.51 1.58 2.01 2.40 2.68 3.31 3.41 3.28 3.17 3.12 3.10 3.10 2.94 2.87 2.84 2.71 2.32 2.10 1.89 1.80 1.83 1.96 2.12 2.33 2.52 2.71 2.97 3.08 3.33 3.72 3.63 3.63 3.52 -9999.00 -9999.00 -9999.00 -9999.00 -9999.00 -9999.00 -9999.00 -9999.00 -9999.00 -9999.00 -9999.00 -9999.00 -9999.00 -9999.00 -9999.00 -9999.00 -9999.00 -9999.00 -9999.00 -9999.00 -9999.00 -9999.00 -9999.00 -9999.00 -9999.00 -9999.00 -9999.00 -9999.00 -9999.00 -9999.00 -9999.00 -9999.00 -9999.00 -9999.00 -9999.00 -9999.00 -9999.00 -9999.00 -9999.00 -9999.00 -9999.00 -9999.00 -9999.00 -9999.00 -9999.00 -9999.00 -9999.00 -9999.00 -9999.00 -9999.00 -9999.00 -9999.00 -9999.00 -9999.00 -9999.00 -9999.00 -9999.00 -9999.00 -9999.00 -9999.00 -9999.00 -9999.00 -9999.00 -9999.00 -9999.00 -9999.00 -9999.00 -9999.00 -9999.00 -9999.00 -9999.00 -9999.00 -9999.00 -9999.00 -9999.00 -9999.00 -9999.00 -9999.00 -9999.00 -9999.00 -9999.00 -9999.00 -9999.00 -9999.00 -9999.00 -9999.00 -9999.00 -9999.00 -9999.00 -9999.00 -9999.00 -9999.00 -9999.00 -9999.00 -9999.00 -9999.00 -9999.00 -9999.00 -9999.00 -9999.00 -9999.00 -9999.00 -9999.00 -9999.00 -9999.00 -9999.00 -9999.00 -9999.00 -9999.00 -9999.00 -9999.00 -9999.00 -9999.00 -9999.00 -9999.00 -9999.00 -9999.00
-9999.00 -9999.00 -9999.00 -9999.00 -9999.00 -9999.00 -9999.00 -9999.00 -9999.00 -9999.00 -9999.00 -9999.00 -9999.00 -9999.00 -9999.00 -9999.00 -9999.00 -9999.00 -9999.00 -9999.00 -9999.00 -9999.00 -9999.00 -9999.00 -9999.00 -9999.00 -9999.00 -9999.00 -9999.00 -9999.00 -9999.00 -9999.00 -9999.00 -9999.00 -9999.00 -9999.00 -9999.00 -9999.00 -9999.00 -9999.00 -9999.00 -9999.00 -16.75 -16.71 -16.68 -16.64 -16.57 -16.50 -16.44 -16.39 -16.30 -16.26 -16.20 -16.14 -16.07 -16.02 -15.96 -15.92 -15.87 -15.81 -15.75 -15.69 -15.61 -15.54 -15.46 -15.41 -15.31 -15.21 -15.14 -15.03 -14.93 -14.79 -14.66 -14.55 -14.43 -14.28 -14.14 -14.00 -13.79 -13.52 -13.33 -13.16 -13.03 -12.89 -12.76 -12.62 -12.53 -12.39 -12.25 -12.14 -12.00 -11.86 -11.72 -11.57 -11.42 -11.27 -11.13 -11.00 -10.85 -10.70 -10.56 -10.40 -10.25 -10.12 -9.99 -9.86 -9.72 -9.59 -9.46 -9.34 -9.21 -9.08 -8.93 -8.75 -8.60 -8.36 -7.90 -7.46 -6.98 -6.54 -6.20 -5.83 -5.66 -5.46 -5.33 -5.14 -5.13 -5.00 -4.94 -4.71 -4.47 -4.15 -4.01 -3.87 -3.83 -3.88 -3.83 -3.67 -3.69 -3.55 -3.46 -3.38 -3.16 -3.02 -2.79 -2.70 -2.60 -2.51 -2.43 -2.41 -2.31 -2.21 -2.02 -1.86 -1.71 -1.57 -1.42 -1.27 -1.17 -1.05 -0.90 -0.75 -0.70 -0.64 -0.61 -0.54 -0.49 -0.47 -0.41 -0.33 -0.21 -0.14 -0.03 0.08 0.06 0.10 0.13 0.18 0.20 0.24 0.26 0.31 0.30 0.37 0.26 0.21 0.12 0.09 0.01 -0.04 -0.09 -0.32 -0.92 -1.25 -1.24 -1.22 -1.14 -1.08 -1.01 -0.91 -0.76 -0.45 -0.16 -0.04 -0.09 0.10 0.14 0.21 0.35 0.45 0.70 0.76 0.78 0.87 0.94 1.01 1.03 1.10 1.09 1.22 1.31 1.41 1.46 1.68 2.04 2.40 2.81 3.46 3.57 3.34 3.48 3.55 3.59 3.67 3.42 3.42 3.20 3.22 3.12 3.05 2.92 2.84 2.87 2.80 2.86 2.93 3.16 3.12 3.32 3.55 3.82 3.85 3.65 3.54 -9999.00 -9999.00 -9999.00 -9999.00 -9999.00 -9999.00 -9999.00 -9999.00 -9999.00 -9999.00 -9999.00 -9999.00 -9999.00 -9999.00 -9999.00 -9999.00 -9999.00 -9999.00 -9999.00 -9999.00 -9999.00 -9999.00 -9999.00 -9999.00 -9999.00 -9999.00 -9999.00 -9999.00 -9999.00 -9999.00 -9999.00 -9999.00 -9999.00 -9999.00 -9999.00 -9999.00 -9999.00 -9999.00 -9999.00 -9999.00 -9999.00 -9999.00 -9999.00 -9999.00 -9999.00 -9999.00 -9999.00 -9999.00 -9999.00 -9999.00 -9999.00 -9999.00 -9999.00 -9999.00 -9999.00 -9999.00 -9999.00 -9999.00 -9999.00 -9999.00 -9999.00 -9999.00 -9999.00 -9999.00 -9999.00 -9999.00 -9999.00 -9999.00 -9999.00 -9999.00 -9999.00 -9999.00 -9999.00 -9999.00 -9999.00 -9999.00 -9999.00 -9999.00 -9999.00 -9999.00 -9999.00 -9999.00 -9999.00 -9999.00 -9999.00 -9999.00 -9999.00 -9999.00 -9999.00 -9999.00 -9999.00 -9999.00 -9999.00 -9999.00 -9999.00 -9999.00 -9999.00 -9999.00 -9999.00 -9999.00 -9999.00 -9999.00 -9999.00 -9999.00 -9999.00 -9999.00 -9999.00 -9999.00 -9999.00 -9999.00 -9999.00 -9999.00 -9999.00 -9999.00 -9999.00 -9999.00 -9999.00 -9999.00 -9999.00 -9999.00
-9999.00 -9999.00 -9999.00 -9999.00 -9999.00 -9999.00 -9999.00 -9999.00 -9999.00 -9999.00 -9999.00 -9999.00 -9999.00 -9999.00 -9999.00 -9999.00 -9999.00 -9999.00 -9999.00 -9999.00 -9999.00 -9999.00 -9999.00 -9999.00 -9999.00 -9999.00 -9999.00 -9999.00 -9999.00 -9999.00 -9999.00 -9999.00 -9999.00 -9999.00 -9999.00 -9999.00 -9999.00 -9999.00 -9999.00 -9999.00 -9999.00 -16.79 -16.74 -16.70 -16.68 -16.66 -16.57 -16.50 -16.44 -16.35 -16.31 -16.25 -16.17 -16.11 -16.06 -15.99 -15.95 -15.90 -15.84 -15.79 -15.71 -15.65 -15.58 -15.52 -15.46 -15.38 -15.28 -15.20 -15.11 -14.99 -14.86 -14.74 -14.61 -14.51 -14.39 -14.23 -14.09 -13.90 -13.66 -13.42 -13.23 -13.10 -12.95 -12.82 -12.68 -12.58 -12.44 -12.33 -12.21 -12.07 -11.93 -11.79 -11.63 -11.48 -11.33 -11.20 -11.08 -10.93 -10.78 -10.64 -10.48 -10.32 -10.19 -10.06 -9.97 -9.81 -9.68 -9.54 -9.44 -9.29 -9.16 -9.00 -8.84 -8.68 -8.54 -8.16 -7.71 -7.23 -6.73 -6.36 -5.92 -5.69 -5.48 -5.39 -5.21 -5.11 -5.03 -4.92 -4.75 -4.55 -4.28 -4.14 -3.97 -3.85 -3.81 -3.73 -3.64 -3.63 -3.46 -3.38 -3.31 -3.17 -3.05 -2.90 -2.76 -2.67 -2.59 -2.50 -2.33 -2.19 -2.15 -2.05 -1.87 -1.74 -1.61 -1.54 -1.37 -1.24 -1.11 -0.99 -0.85 -0.69 -0.60 -0.54 -0.50 -0.41 -0.40 -0.35 -0.26 -0.14 -0.02 0.06 0.09 0.14 0.22 0.23 0.22 0.25 0.31 0.38 0.38 0.43 0.42 0.48 0.46 0.33 0.25 0.23 0.18 0.09 0.07 0.01 -0.31 -0.82 -1.27 -1.27 -1.24 -1.16 -1.09 -1.01 -0.92 -0.65 -0.43 0.11 0.12 0.12 0.15 0.17 0.32 0.45 0.57 0.76 0.80 0.90 0.95 1.05 1.08 1.12 1.16 1.26 1.38 1.65 1.95 2.43 2.93 3.51 3.41 3.39 3.36 3.31 3.26 3.37 3.44 3.40 3.55 3.66 3.65 3.81 3.76 3.70 3.61 3.47 3.56 3.59 3.69 3.96 3.89 3.88 3.83 3.75 3.55 -9999.00 -9999.00 -9999.00 -9999.00 -9999.00 -9999.00 -9999.00 -9999.00 -9999.00 -9999.00 -9999.00 -9999.00 -9999.00 -9999.00 -9999.00 -9999.00 -9999.00 -9999.00 -9999.00 -9999.00 -9999.00 -9999.00 -9999.00 -9999.00 -9999.00 -9999.00 -9999.00 -9999.00 -9999.00 -9999.00 -9999.00 -9999.00 -9999.00 -9999.00 -9999.00 -9999.00 -9999.00 -9999.00 -9999.00 -9999.00 -9999.00 -9999.00 -9999.00 -9999.00 -9999.00 -9999.00 -9999.00 -9999.00 -9999.00 -9999.00 -9999.00 -9999.00 -9999.00 -9999.00 -9999.00 -9999.00 -9999.00 -9999.00 -9999.00 -9999.00 -9999.00 -9999.00 -9999.00 -9999.00 -9999.00 -9999.00 -9999.00 -9999.00 -9999.00 -9999.00 -9999.00 -9999.00 -9999.00 -9999.00 -9999.00 -9999.00 -9999.00 -9999.00 -9999.00 -9999.00 -9999.00 -9999.00 -9999.00 -9999.00 -9999.00 -9999.00 -9999.00 -9999.00 -9999.00 -9999.00 -9999.00 -9999.00 -9999.00 -9999.00 -9999.00 -9999.00 -9999.00 -9999.00 -9999.00 -9999.00 -9999.00 -9999.00 -9999.00 -9999.00 -9999.00 -9999.00 -9999.00 -9999.00 -9999.00 -9999.00 -9999.00 -9999.00 -9999.00 -9999.00 -9999.00 -9999.00 -9999.00 -9999.00 -9999.00 -9999.00 -9999.00 -9999.00 -9999.00
-9999.00 -9999.00 -9999.00 -9999.00 -9999.00 -9999.00 -9999.00 -9999.00 -9999.00 -9999.00 -9999.00 -9999.00 -9999.00 -9999.00 -9999.00 -9999.00 -9999.00 -9999.00 -9999.00 -9999.00 -9999.00 -9999.00 -9999.00 -9999.00 -9999.00 -9999.00 -9999.00 -9999.00 -9999.00 -9999.00 -9999.00 -9999.00 -9999.00 -9999.00 -9999.00 -9999.00 -9999.00 -9999.00 -9999.00 -9999.00 -16.79 -16.75 -16.72 -16.70 -16.67 -16.63 -16.55 -16.48 -16.41 -16.33 -16.29 -16.21 -16.15 -16.08 -16.02 -15.97 -15.92 -15.86 -15.81 -15.75 -15.70 -15.63 -15.56 -15.50 -15.42 -15.34 -15.26 -15.18 -15.07 -14.94 -14.79 -14.70 -14.58 -14.48 -14.33 -14.19 -14.03 -13.80 -13.56 -13.35 -13.16 -13.01 -12.87 -12.74 -12.63 -12.49 -12.38 -12.26 -12.14 -12.00 -11.84 -11.72 -11.55 -11.40 -11.26 -11.14 -10.98 -10.85 -10.73 -10.56 -10.40 -10.26 -10.14 -10.05 -9.91 -9.76 -9.65 -9.50 -9.37 -9.23 -9.08 -8.92 -8.77 -8.63 -8.33 -7.97 -7.49 -6.95 -6.54 -6.03 -5.74 -5.56 -5.44 -5.33 -5.13 -5.05 -5.01 -4.81 -4.63 -4.47 -4.27 -4.10 -4.06 -3.91 -3.76 -3.54 -3.54 -3.45 -3.37 -3.31 -3.15 -3.05 -2.92 -2.78 -2.66 -2.55 -2.39 -2.35 -2.18 -2.12 -1.96 -1.89 -1.77 -1.60 -1.49 -1.42 -1.32 -1.19 -1.06 -0.92 -0.79 -0.63 -0.49 -0.45 -0.39 -0.28 -0.24 -0.13 -0.05 0.06 0.10 0.18 0.30 0.26 0.29 0.28 0.32 0.35 0.39 0.46 0.51 0.57 0.57 0.53 0.58 0.47 0.32 0.33 0.32 0.28 0.20 0.14 -0.05 -0.41 -0.85 -1.31 -1.29 -1.24 -1.16 -1.08 -1.01 -0.77 -0.51 -0.31 -0.04 0.18 0.18 0.24 0.36 0.51 0.51 0.69 0.79 0.93 1.06 1.07 1.16 1.21 1.21 1.28 1.62 2.10 2.60 3.38 3.35 3.32 3.23 3.34 3.36 3.43 3.51 3.61 3.72 3.52 3.51 3.51 3.49 3.46 3.54 3.59 3.37 3.39 3.33 3.40 3.41 3.56 3.54 -9999.00 -9999.00 -9999.00 -9999.00 -9999.00 -9999.00 -9999.00 -9999.00 -9999.00 -9999.00 -9999.00 -9999.00 -9999.00 -9999.00 -9999.00 -9999.00 -9999.00 -9999.00 -9999.00 -9999.00 -9999.00 -9999.00 -9999.00 -9999.00 -9999.00 -9999.00 -9999.00 -9999.00 -9999.00 -9999.00 -9999.00 -9999.00 -9999.00 -9999.00 -9999.00 -9999.00 -9999.00 -9999.00 -9999.00 -9999.00 -9999.00 -9999.00 -9999.00 -9999.00 -9999.00 -9999.00 -9999.00 -9999.00 -9999.00 -9999.00 -9999.00 -9999.00 -9999.00 -9999.00 -9999.00 -9999.00 -9999.00 -9999.00 -9999.00 -9999.00 -9999.00 -9999.00 -9999.00 -9999.00 -9999.00 -9999.00 -9999.00 -9999.00 -9999.00 -9999.00 -9999.00 -9999.00 -9999.00 -9999.00 -9999.00 -9999.00 -9999.00 -9999.00 -9999.00 -9999.00 -9999.00 -9999.00 -9999.00 -9999.00 -9999.00 -9999.00 -9999.00 -9999.00 -9999.00 -9999.00 -9999.00 -9999.00 -9999.00 -9999.00 -9999.00 -9999.00 -9999.00 -9999.00 -9999.00 -9999.00 -9999.00 -9999.00 -9999.00 -9999.00 -9999.00 -9999.00 -9999.00 -9999.00 -9999.00 -9999.00 -9999.00 -9999.00 -9999.00 -9999.00 -9999.00 -9999.00 -9999.00 -9999.00 -9999.00 -9999.00 -9999.00 -9999.00 -9999.00 -9999.00 -9999.00 -9999.00 -9999.00
-9999.00 -9999.00 -9999.00 -9999.00 -9999.00 -9999.00 -9999.00 -9999.00 -9999.00 -9999.00 -9999.00 -9999.00 -9999.00 -9999.00 -9999.00 -9999.00 -9999.00 -9999.00 -9999.00 -9999.00 -9999.00 -9999.00 -9999.00 -9999.00 -9999.00 -9999.00 -9999.00 -9999.00 -9999.00 -9999.00 -9999.00 -9999.00 -9999.00 -9999.00 -9999.00 -9999.00 -9999.00 -9999.00 -9999.00 -16.80 -16.76 -16.73 -16.71 -16.68 -16.65 -16.58 -16.53 -16.47 -16.37 -16.33 -16.26 -16.19 -16.12 -16.07 -15.99 -15.95 -15.89 -15.84 -15.79 -15.74 -15.67 -15.61 -15.54 -15.46 -15.39 -15.31 -15.23 -15.14 -15.01 -14.87 -14.77 -14.67 -14.57 -14.43 -14.29 -14.12 -13.93 -13.70 -13.46 -13.26 -13.10 -12.94 -12.79 -12.67 -12.55 -12.42 -12.30 -12.18 -12.05 -11.91 -11.78 -11.63 -11.47 -11.33 -11.19 -11.06 -10.92 -10.81 -10.63 -10.47 -10.33 -10.21 -10.13 -9.99 -9.82 -9.70 -9.58 -9.46 -9.31 -9.14 -9.01 -8.86 -8.72 -8.47 -8.18 -7.75 -7.18 -6.69 -6.12 -5.84 -5.64 -5.48 -5.40 -5.20 -5.13 -5.03 -4.91 -4.75 -4.61 -4.41 -4.24 -4.19 -4.04 -3.83 -3.67 -3.54 -3.49 -3.33 -3.27 -3.13 -3.06 -2.93 -2.80 -2.66 -2.53 -2.46 -2.27 -2.20 -2.05 -1.97 -1.91 -1.72 -1.62 -1.48 -1.39 -1.28 -1.20 -1.10 -0.97 -0.82 -0.72 -0.61 -0.44 -0.32 -0.25 -0.12 -0.06 0.05 0.04 0.16 0.21 0.32 0.35 0.29 0.21 0.20 0.27 0.38 0.46 0.55 0.61 0.67 0.70 0.67 0.68 0.64 0.53 0.50 0.47 0.44 0.38 0.28 0.21 0.00 -0.38 -0.91 -1.37 -1.30 -1.23 -1.12 -1.08 -0.91 -0.64 -0.50 -0.30 0.08 0.26 0.29 0.33 0.45 0.58 0.67 0.74 0.96 1.14 1.13 1.20 1.25 1.28 1.55 2.02 2.54 3.07 3.09 3.07 3.09 3.16 3.46 3.51 3.46 3.51 3.46 3.41 3.19 2.92 3.11 3.13 3.08 3.04 3.12 3.03 2.91 -9999.00 -9999.00 -9999.00 -9999.00 -9999.00 -9999.00 -9999.00 -9999.00 -9999.00 -9999.00 -9999.00 -9999.00 -9999.00 -9999.00 -9999.00 -9999.00 -9999.00 -9999.00 -9999.00 -9999.00 -9999.00 -9999.00 -9999.00 -9999.00 -9999.00 -9999.00 -9999.00 -9999.00 -9999.00 -9999.00 -9999.00 -9999.00 -9999.00 -9999.00 -9999.00 -9999.00 -9999.00 -9999.00 -9999.00 -9999.00 -9999.00 -9999.00 -9999.00 -9999.00 -9999.00 -9999.00 -9999.00 -9999.00 -9999.00 -9999.00 -9999.00 -9999.00 -9999.00 -9999.00 -9999.00 -9999.00 -9999.00 -9999.00 -9999.00 -9999.00 -9999.00 -9999.00 -9999.00 -9999.00 -9999.00 -9999.00 -9999.00 -9999.00 -9999.00 -9999.00 -9999.00 -9999.00 -9999.00 -9999.00 -9999.00 -9999.00 -9999.00 -9999.00 -9999.00 -9999.00 -9999.00 -9999.00 -9999.00 -9999.00 -9999.00 -9999.00 -9999.00 -9999.00 -9999.00 -9999.00 -9999.00 -9999.00 -9999.00 -9999.00 -9999.00 -9999.00 -9999.00 -9999.00 -9999.00 -9999.00 -9999.00 -9999.00 -9999.00 -9999.00 -9999.00 -9999.00 -9999.00 -9999.00 -9999.00 -9999.00 -9999.00 -9999.00 -9999.00 -9999.00 -9999.00 -9999.00 -9999.00 -9999.00 -9999.00 -9999.00 -9999.00 -9999.00 -9999.00 -9999.00 -9999.00 -9999.00 -9999.00 -9999.00 -9999.00 -9999.00 -9999.00 -9999.00
-9999.00 -9999.00 -9999.00 -9999.00 -9999.00 -9999.00 -9999.00 -9999.00 -9999.00 -9999.00 -9999.00 -9999.00 -9999.00 -9999.00 -9999.00 -9999.00 -9999.00 -9999.00 -9999.00 -9999.00 -9999.00 -9999.00 -9999.00 -9999.00 -9999.00 -9999.00 -9999.00 -9999.00 -9999.00 -9999.00 -9999.00 -9999.00 -9999.00 -9999.00 -9999.00 -9999.00 -9999.00 -16.84 -16.81 -16.78 -16.76 -16.73 -16.69 -16.66 -16.60 -16.56 -16.50 -16.39 -16.39 -16.31 -16.22 -16.16 -16.10 -16.02 -15.98 -15.92 -15.88 -15.82 -15.78 -15.71 -15.65 -15.58 -15.51 -15.44 -15.36 -15.28 -15.20 -15.09 -14.95 -14.84 -14.74 -14.64 -14.52 -14.38 -14.23 -14.05 -13.84 -13.59 -13.39 -13.20 -13.04 -12.88 -12.74 -12.60 -12.47 -12.36 -12.22 -12.09 -11.98 -11.83 -11.69 -11.53 -11.39 -11.24 -11.13 -10.98 -10.86 -10.69 -10.54 -10.39 -10.29 -10.18 -10.06 -9.92 -9.77 -9.65 -9.54 -9.37 -9.21 -9.07 -8.95 -8.80 -8.62 -8.38 -8.00 -7.54 -6.95 -6.29 -5.91 -5.71 -5.51 -5.49 -5.34 -5.21 -5.05 -5.01 -4.83 -4.69 -4.52 -4.40 -4.30 -4.16 -3.93 -3.73 -3.58 -3.59 -3.38 -3.30 -3.13 -3.07 -2.94 -2.81 -2.68 -2.54 -2.44 -2.31 -2.21 -2.11 -2.01 -1.87 -1.76 -1.62 -1.47 -1.37 -1.25 -1.16 -1.05 -0.99 -0.86 -0.75 -0.62 -0.52 -0.39 -0.22 -0.12 -0.00 0.03 0.13 0.17 0.30 0.37 0.43 0.37 0.25 0.15 0.17 0.13 0.14 0.27 0.45 0.61 0.67 0.76 0.79 0.78 0.79 0.74 0.67 0.59 0.56 0.46 0.42 0.37 0.27 0.12 -0.29 -0.95 -1.41 -1.30 -1.19 -1.13 -0.99 -0.81 -0.61 -0.47 -0.26 0.00 0.37 0.50 0.51 0.58 0.71 0.84 0.92 1.08 1.19 1.26 1.35 1.48 1.92 2.36 3.03 2.79 2.44 2.63 2.95 3.22 3.57 3.63 3.45 3.31 2.96 2.64 2.59 2.55 2.50 -9999.00 -9999.00 -9999.00 -9999.00 -9999.00 -9999.00 -9999.00 -9999.00 -9999.00 -9999.00 -9999.00 -9999.00 -9999.00 -9999.00 -9999.00 -9999.00 -9999.00 -9999.00 -9999.00 -9999.00 -9999.00 -9999.00 -9999.00 -9999.00 -9999.00 -9999.00 -9999.00 -9999.00 -9999.00 -9999.00 -9999.00 -9999.00 -9999.00 -9999.00 -9999.00 -9999.00 -9999.00 -9999.00 -9999.00 -9999.00 -9999.00 -9999.00 -9999.00 -9999.00 -9999.00 -9999.00 -9999.00 -9999.00 -9999.00 -9999.00 -9999.00 -9999.00 -9999.00 -9999.00 -9999.00 -9999.00 -9999.00 -9999.00 -9999.00 -9999.00 -9999.00 -9999.00 -9999.00 -9999.00 -9999.00 -9999.00 -9999.00 -9999.00 -9999.00 -9999.00 -9999.00 -9999.00 -9999.00 -9999.00 -9999.00 -9999.00 -9999.00 -9999.00 -9999.00 -9999.00 -9999.00 -9999.00 -9999.00 -9999.00 -9999.00 -9999.00 -9999.00 -9999.00 -9999.00 -9999.00 -9999.00 -9999.00 -9999.00 -9999.00 -9999.00 -9999.00 -9999.00 -9999.00 -9999.00 -9999.00 -9999.00 -9999.00 -9999.00 -9999.00 -9999.00 -9999.00 -9999.00 -9999.00 -9999.00 -9999.00 -9999.00 -9999.00 -9999.00 -9999.00 -9999.00 -9999.00 -9999.00 -9999.00 -9999.00 -9999.00 -9999.00 -9999.00 -9999.00 -9999.00 -9999.00 -9999.00 -9999.00 -9999.00 -9999.00 -9999.00 -9999.00 -9999.00 -9999.00 -9999.00 -9999.00 -9999.00 -9999.00 -9999.00
