ncols	374
nrows	32
xllcorner	295585
yllcorner	131055
cellsize	5.000
NODATA_value	-9999.000
-9999.00 -9999.00 -9999.00 -9999.00 -9999.00 -9999.00 -9999.00 -9999.00 -9999.00 -9999.00 -9999.00 -9999.00 -9999.00 -9999.00 -9999.00 -9999.00 -9999.00 -9999.00 -9999.00 -9999.00 -18.27 -18.21 -18.14 -18.11 -18.04 -18.01 -17.93 -17.85 -17.80 -17.75 -17.71 -17.68 -17.63 -17.62 -17.61 -17.60 -17.56 -17.55 -17.52 -17.49 -17.44 -17.38 -17.35 -17.32 -17.29 -17.27 -17.26 -17.24 -17.18 -17.15 -17.11 -17.03 -16.99 -16.96 -16.93 -16.90 -16.88 -16.83 -16.80 -16.76 -16.73 -16.68 -16.64 -16.62 -16.58 -16.58 -16.48 -16.43 -16.38 -16.33 -16.30 -16.25 -16.21 -16.18 -16.13 -16.10 -16.08 -16.01 -15.99 -15.92 -15.89 -15.86 -15.77 -15.72 -15.63 -15.54 -15.48 -15.40 -15.32 -15.27 -15.15 -15.05 -14.94 -14.83 -14.75 -14.65 -14.54 -14.43 -14.28 -14.17 -13.99 -13.86 -13.70 -13.54 -13.35 -13.14 -12.94 -12.73 -12.52 -12.32 -12.04 -11.77 -11.47 -11.16 -10.88 -10.60 -10.34 -10.02 -9.71 -9.38 -9.07 -8.61 -7.87 -7.08 -6.36 -5.61 -5.12 -4.81 -4.54 -4.27 -4.03 -3.87 -3.68 -3.57 -3.46 -3.32 -3.30 -3.13 -2.98 -2.86 -2.77 -2.63 -2.42 -2.27 -2.12 -2.07 -2.03 -1.92 -1.88 -1.73 -1.68 -1.57 -1.50 -1.45 -1.41 -1.36 -1.30 -1.11 -1.16 -1.17 -1.11 -1.01 -0.85 -0.78 -0.74 -0.71 -0.71 -0.67 -0.59 -0.49 -0.37 -0.21 -0.12 -0.07 0.06 0.23 0.42 0.51 0.59 0.71 0.85 1.02 1.20 1.33 1.55 1.79 2.09 2.36 2.66 2.90 3.25 3.58 3.55 3.43 3.30 3.27 3.17 3.16 2.98 2.77 2.50 2.20 1.84 1.39 1.42 1.53 1.68 1.69 1.51 1.60 1.70 1.65 1.54 1.54 1.53 1.69 1.75 1.69 1.71 1.66 2.05 1.99 1.22 1.28 1.44 1.86 1.93 2.02 2.02 2.04 2.06 2.07 2.09 2.18 2.17 2.02 2.15 2.07 2.02 1.95 1.95 2.03 2.04 2.27 2.27 2.24 2.28 2.13 1.95 1.47 1.29 1.97 2.71 3.20 3.43 3.40 3.41 3.35 -9999.00 -9999.00 -9999.00 -9999.00 -9999.00 -9999.00 -9999.00 -9999.00 -9999.00 -9999.00 -9999.00 -9999.00 -9999.00 -9999.00 -9999.00 -9999.00 -9999.00 -9999.00 -9999.00 -9999.00 -9999.00 -9999.00 -9999.00 -9999.00 -9999.00 -9999.00 -9999.00 -9999.00 -9999.00 -9999.00 -9999.00 -9999.00 -9999.00 -9999.00 -9999.00 -9999.00 -9999.00 -9999.00 -9999.00 -9999.00 -9999.00 -9999.00 -9999.00 -9999.00 -9999.00 -9999.00 -9999.00 -9999.00 -9999.00 -9999.00 -9999.00 -9999.00 -9999.00 -9999.00 -9999.00 -9999.00 -9999.00 -9999.00 -9999.00 -9999.00 -9999.00 -9999.00 -9999.00 -9999.00 -9999.00 -9999.00 -9999.00 -9999.00 -9999.00 -9999.00 -9999.00 -9999.00 -9999.00 -9999.00 -9999.00 -9999.00 -9999.00 -9999.00 -9999.00 -9999.00 -9999.00 -9999.00 -9999.00 -9999.00 -9999.00 -9999.00 -9999.00 -9999.00 -9999.00 -9999.00 -9999.00 -9999.00 -9999.00 -9999.00 -9999.00 -9999.00 -9999.00 -9999.00 -9999.00 -9999.00 -9999.00 -9999.00 -9999.00 -9999.00 -9999.00 -9999.00 -9999.00 -9999.00 -9999.00 -9999.00 -9999.00 -9999.00 -9999.00 -9999.00 -9999.00 -9999.00
-9999.00 -9999.00 -9999.00 -9999.00 -9999.00 -9999.00 -9999.00 -9999.00 -9999.00 -9999.00 -9999.00 -9999.00 -9999.00 -9999.00 -9999.00 -9999.00 -9999.00 -9999.00 -9999.00 -18.23 -18.18 -18.11 -18.05 -17.99 -17.96 -17.89 -17.80 -17.74 -17.68 -17.65 -17.61 -17.55 -17.55 -17.54 -17.53 -17.49 -17.49 -17.45 -17.44 -17.39 -17.33 -17.31 -17.28 -17.24 -17.23 -17.21 -17.19 -17.18 -17.13 -17.06 -17.01 -16.96 -16.92 -16.89 -16.84 -16.83 -16.80 -16.77 -16.73 -16.70 -16.68 -16.61 -16.59 -16.54 -16.53 -16.47 -16.40 -16.37 -16.31 -16.27 -16.22 -16.18 -16.15 -16.11 -16.08 -16.04 -16.01 -15.98 -15.94 -15.88 -15.87 -15.78 -15.73 -15.63 -15.55 -15.50 -15.40 -15.34 -15.25 -15.16 -15.06 -14.97 -14.85 -14.78 -14.70 -14.58 -14.49 -14.35 -14.22 -14.06 -13.95 -13.80 -13.64 -13.45 -13.25 -13.04 -12.84 -12.63 -12.41 -12.22 -11.96 -11.68 -11.36 -11.07 -10.75 -10.50 -10.24 -9.96 -9.66 -9.32 -8.96 -8.29 -7.49 -6.68 -5.97 -5.39 -5.05 -4.78 -4.47 -4.21 -4.07 -3.87 -3.70 -3.53 -3.40 -3.32 -3.18 -3.05 -2.85 -2.80 -2.67 -2.48 -2.26 -2.10 -2.00 -1.96 -1.83 -1.79 -1.68 -1.60 -1.55 -1.44 -1.37 -1.31 -1.31 -1.20 -1.11 -1.05 -1.02 -1.02 -0.94 -0.86 -0.75 -0.64 -0.62 -0.56 -0.58 -0.55 -0.49 -0.44 -0.44 -0.31 -0.17 -0.06 0.13 0.26 0.42 0.47 0.59 0.69 0.85 1.11 1.35 1.62 1.96 2.18 2.56 2.83 3.18 3.49 3.52 3.47 3.26 3.21 3.22 3.10 3.06 2.97 2.73 2.30 1.96 1.50 1.44 1.45 1.57 1.67 1.62 1.58 1.52 1.50 1.59 1.76 1.76 1.62 1.69 1.62 1.53 1.51 1.53 1.56 1.54 1.18 1.23 1.55 1.50 1.24 1.34 1.67 1.83 1.96 2.02 2.02 2.12 2.21 2.26 2.25 2.17 2.12 2.05 1.95 1.96 2.17 2.23 2.29 2.27 2.25 2.19 2.14 2.01 1.76 1.29 1.94 2.70 3.36 3.42 3.19 3.25 3.35 -9999.00 -9999.00 -9999.00 -9999.00 -9999.00 -9999.00 -9999.00 -9999.00 -9999.00 -9999.00 -9999.00 -9999.00 -9999.00 -9999.00 -9999.00 -9999.00 -9999.00 -9999.00 -9999.00 -9999.00 -9999.00 -9999.00 -9999.00 -9999.00 -9999.00 -9999.00 -9999.00 -9999.00 -9999.00 -9999.00 -9999.00 -9999.00 -9999.00 -9999.00 -9999.00 -9999.00 -9999.00 -9999.00 -9999.00 -9999.00 -9999.00 -9999.00 -9999.00 -9999.00 -9999.00 -9999.00 -9999.00 -9999.00 -9999.00 -9999.00 -9999.00 -9999.00 -9999.00 -9999.00 -9999.00 -9999.00 -9999.00 -9999.00 -9999.00 -9999.00 -9999.00 -9999.00 -9999.00 -9999.00 -9999.00 -9999.00 -9999.00 -9999.00 -9999.00 -9999.00 -9999.00 -9999.00 -9999.00 -9999.00 -9999.00 -9999.00 -9999.00 -9999.00 -9999.00 -9999.00 -9999.00 -9999.00 -9999.00 -9999.00 -9999.00 -9999.00 -9999.00 -9999.00 -9999.00 -9999.00 -9999.00 -9999.00 -9999.00 -9999.00 -9999.00 -9999.00 -9999.00 -9999.00 -9999.00 -9999.00 -9999.00 -9999.00 -9999.00 -9999.00 -9999.00 -9999.00 -9999.00 -9999.00 -9999.00 -9999.00 -9999.00 -9999.00 -9999.00 -9999.00 -9999.00 -9999.00
-9999.00 -9999.00 -9999.00 -9999.00 -9999.00 -9999.00 -9999.00 -9999.00 -9999.00 -9999.00 -9999.00 -9999.00 -9999.00 -9999.00 -9999.00 -9999.00 -9999.00 -9999.00 -18.18 -18.14 -18.07 -18.03 -17.94 -17.91 -17.84 -17.76 -17.70 -17.66 -17.61 -17.54 -17.48 -17.48 -17.47 -17.47 -17.43 -17.43 -17.39 -17.39 -17.34 -17.28 -17.26 -17.23 -17.20 -17.18 -17.16 -17.15 -17.12 -17.08 -17.05 -16.99 -16.93 -16.88 -16.87 -16.81 -16.77 -16.76 -16.73 -16.71 -16.66 -16.65 -16.59 -16.56 -16.54 -16.48 -16.46 -16.39 -16.35 -16.28 -16.26 -16.21 -16.17 -16.13 -16.08 -16.06 -16.02 -15.99 -15.96 -15.92 -15.86 -15.88 -15.80 -15.74 -15.64 -15.57 -15.50 -15.41 -15.35 -15.25 -15.18 -15.07 -14.98 -14.88 -14.79 -14.72 -14.60 -14.50 -14.39 -14.26 -14.11 -13.99 -13.87 -13.73 -13.56 -13.35 -13.15 -12.94 -12.74 -12.56 -12.34 -12.11 -11.87 -11.58 -11.30 -10.99 -10.71 -10.39 -10.10 -9.85 -9.55 -9.24 -8.79 -7.97 -7.17 -6.33 -5.65 -5.22 -4.98 -4.69 -4.45 -4.20 -4.02 -3.83 -3.64 -3.48 -3.35 -3.21 -3.07 -2.85 -2.82 -2.66 -2.47 -2.27 -2.09 -1.93 -1.87 -1.76 -1.68 -1.61 -1.52 -1.44 -1.35 -1.27 -1.20 -1.23 -1.16 -1.08 -0.97 -0.90 -0.89 -0.84 -0.80 -0.68 -0.56 -0.50 -0.50 -0.41 -0.47 -0.43 -0.28 -0.31 -0.28 -0.27 -0.15 -0.03 0.11 0.31 0.40 0.51 0.62 0.72 0.89 1.17 1.56 1.90 2.27 2.65 3.02 3.40 3.37 3.26 3.23 3.22 3.16 3.15 3.08 2.86 2.84 2.58 2.17 1.66 1.38 1.37 1.36 1.36 1.47 1.44 1.47 1.47 1.47 1.40 1.47 1.53 1.56 1.57 1.51 1.49 1.49 1.47 1.46 1.52 1.45 1.41 1.19 1.13 1.25 1.45 1.46 1.45 1.56 1.83 1.91 1.99 2.00 2.09 2.25 2.29 2.26 2.15 2.05 2.00 2.01 2.19 2.21 2.22 2.23 2.24 2.21 2.19 2.13 1.89 1.22 1.67 2.60 3.43 3.37 3.11 3.22 3.10 -9999.00 -9999.00 -9999.00 -9999.00 -9999.00 -9999.00 -9999.00 -9999.00 -9999.00 -9999.00 -9999.00 -9999.00 -9999.00 -9999.00 -9999.00 -9999.00 -9999.00 -9999.00 -9999.00 -9999.00 -9999.00 -9999.00 -9999.00 -9999.00 -9999.00 -9999.00 -9999.00 -9999.00 -9999.00 -9999.00 -9999.00 -9999.00 -9999.00 -9999.00 -9999.00 -9999.00 -9999.00 -9999.00 -9999.00 -9999.00 -9999.00 -9999.00 -9999.00 -9999.00 -9999.00 -9999.00 -9999.00 -9999.00 -9999.00 -9999.00 -9999.00 -9999.00 -9999.00 -9999.00 -9999.00 -9999.00 -9999.00 -9999.00 -9999.00 -9999.00 -9999.00 -9999.00 -9999.00 -9999.00 -9999.00 -9999.00 -9999.00 -9999.00 -9999.00 -9999.00 -9999.00 -9999.00 -9999.00 -9999.00 -9999.00 -9999.00 -9999.00 -9999.00 -9999.00 -9999.00 -9999.00 -9999.00 -9999.00 -9999.00 -9999.00 -9999.00 -9999.00 -9999.00 -9999.00 -9999.00 -9999.00 -9999.00 -9999.00 -9999.00 -9999.00 -9999.00 -9999.00 -9999.00 -9999.00 -9999.00 -9999.00 -9999.00 -9999.00 -9999.00 -9999.00 -9999.00 -9999.00 -9999.00 -9999.00 -9999.00 -9999.00 -9999.00 -9999.00 -9999.00 -9999.00 -9999.00
-9999.00 -9999.00 -9999.00 -9999.00 -9999.00 -9999.00 -9999.00 -9999.00 -9999.00 -9999.00 -9999.00 -9999.00 -9999.00 -9999.00 -9999.00 -9999.00 -9999.00 -18.14 -18.10 -18.03 -18.00 -17.92 -17.87 -17.80 -17.73 -17.67 -17.63 -17.58 -17.53 -17.44 -17.40 -17.40 -17.41 -17.36 -17.37 -17.32 -17.34 -17.29 -17.23 -17.21 -17.19 -17.15 -17.13 -17.12 -17.10 -17.07 -17.02 -17.00 -16.94 -16.91 -16.87 -16.83 -16.78 -16.75 -16.73 -16.68 -16.65 -16.61 -16.59 -16.57 -16.56 -16.51 -16.46 -16.44 -16.37 -16.33 -16.27 -16.25 -16.20 -16.14 -16.11 -16.06 -16.03 -15.99 -15.97 -15.92 -15.90 -15.85 -15.83 -15.79 -15.74 -15.66 -15.59 -15.50 -15.41 -15.37 -15.25 -15.17 -15.07 -14.99 -14.91 -14.80 -14.74 -14.62 -14.53 -14.43 -14.29 -14.16 -14.03 -13.92 -13.76 -13.64 -13.49 -13.29 -13.09 -12.87 -12.67 -12.41 -12.24 -12.01 -11.76 -11.48 -11.23 -10.94 -10.64 -10.33 -10.02 -9.71 -9.40 -9.09 -8.55 -7.66 -6.81 -6.03 -5.40 -5.07 -4.85 -4.62 -4.38 -4.18 -3.93 -3.77 -3.56 -3.42 -3.25 -3.09 -3.02 -2.84 -2.67 -2.49 -2.30 -2.09 -1.95 -1.81 -1.68 -1.57 -1.53 -1.43 -1.35 -1.27 -1.18 -1.11 -1.08 -1.11 -0.97 -0.89 -0.84 -0.76 -0.73 -0.64 -0.66 -0.54 -0.38 -0.35 -0.37 -0.29 -0.35 -0.29 -0.24 -0.25 -0.22 -0.20 -0.08 0.01 0.08 0.22 0.36 0.50 0.64 0.73 0.97 1.42 1.91 2.21 2.66 3.26 3.28 3.18 3.07 3.06 3.05 3.06 3.07 3.06 2.95 2.71 2.38 1.94 1.49 1.50 1.42 1.37 1.40 1.42 1.42 1.36 1.30 1.34 1.36 1.35 1.38 1.39 1.40 1.41 1.48 1.53 1.57 1.58 1.61 1.62 1.32 0.77 0.67 0.65 0.71 0.73 0.64 0.78 0.95 0.76 1.26 1.68 1.91 2.04 2.23 2.15 2.26 2.14 2.05 2.05 2.07 2.15 2.26 2.33 2.27 2.32 2.36 2.33 2.21 1.99 1.50 1.43 2.31 3.39 3.28 -9999.00 -9999.00 -9999.00 -9999.00 -9999.00 -9999.00 -9999.00 -9999.00 -9999.00 -9999.00 -9999.00 -9999.00 -9999.00 -9999.00 -9999.00 -9999.00 -9999.00 -9999.00 -9999.00 -9999.00 -9999.00 -9999.00 -9999.00 -9999.00 -9999.00 -9999.00 -9999.00 -9999.00 -9999.00 -9999.00 -9999.00 -9999.00 -9999.00 -9999.00 -9999.00 -9999.00 -9999.00 -9999.00 -9999.00 -9999.00 -9999.00 -9999.00 -9999.00 -9999.00 -9999.00 -9999.00 -9999.00 -9999.00 -9999.00 -9999.00 -9999.00 -9999.00 -9999.00 -9999.00 -9999.00 -9999.00 -9999.00 -9999.00 -9999.00 -9999.00 -9999.00 -9999.00 -9999.00 -9999.00 -9999.00 -9999.00 -9999.00 -9999.00 -9999.00 -9999.00 -9999.00 -9999.00 -9999.00 -9999.00 -9999.00 -9999.00 -9999.00 -9999.00 -9999.00 -9999.00 -9999.00 -9999.00 -9999.00 -9999.00 -9999.00 -9999.00 -9999.00 -9999.00 -9999.00 -9999.00 -9999.00 -9999.00 -9999.00 -9999.00 -9999.00 -9999.00 -9999.00 -9999.00 -9999.00 -9999.00 -9999.00 -9999.00 -9999.00 -9999.00 -9999.00 -9999.00 -9999.00 -9999.00 -9999.00 -9999.00 -9999.00 -9999.00 -9999.00 -9999.00 -9999.00 -9999.00 -9999.00 -9999.00 -9999.00
-9999.00 -9999.00 -9999.00 -9999.00 -9999.00 -9999.00 -9999.00 -9999.00 -9999.00 -9999.00 -9999.00 -9999.00 -9999.00 -9999.00 -9999.00 -9999.00 -18.10 -18.06 -18.00 -17.98 -17.90 -17.82 -17.76 -17.71 -17.64 -17.61 -17.56 -17.51 -17.43 -17.40 -17.37 -17.33 -17.30 -17.31 -17.25 -17.28 -17.24 -17.18 -17.17 -17.14 -17.11 -17.09 -17.07 -17.05 -17.01 -16.97 -16.92 -16.89 -16.91 -16.85 -16.80 -16.75 -16.71 -16.67 -16.64 -16.60 -16.55 -16.53 -16.49 -16.48 -16.47 -16.44 -16.40 -16.35 -16.32 -16.27 -16.22 -16.18 -16.13 -16.09 -16.04 -16.00 -15.97 -15.95 -15.89 -15.87 -15.82 -15.79 -15.75 -15.69 -15.64 -15.61 -15.50 -15.42 -15.37 -15.26 -15.17 -15.07 -14.99 -14.92 -14.80 -14.74 -14.65 -14.55 -14.49 -14.35 -14.21 -14.10 -13.97 -13.82 -13.70 -13.56 -13.39 -13.22 -13.00 -12.80 -12.60 -12.38 -12.15 -11.92 -11.64 -11.38 -11.14 -10.88 -10.65 -10.25 -9.93 -9.56 -9.26 -8.87 -8.15 -7.37 -6.51 -5.77 -5.28 -4.99 -4.76 -4.52 -4.32 -4.11 -3.91 -3.72 -3.51 -3.31 -3.13 -2.95 -2.85 -2.67 -2.48 -2.33 -2.12 -2.00 -1.85 -1.73 -1.56 -1.46 -1.32 -1.28 -1.18 -1.07 -1.01 -0.97 -0.94 -0.93 -0.81 -0.74 -0.66 -0.66 -0.62 -0.55 -0.43 -0.40 -0.35 -0.30 -0.25 -0.21 -0.16 -0.19 -0.20 -0.22 -0.23 -0.06 -0.12 0.07 -0.02 0.15 0.33 0.47 0.55 0.73 1.25 1.66 2.13 2.58 3.15 3.22 3.08 2.95 2.95 2.82 2.94 2.97 3.04 3.02 2.73 2.18 1.79 1.51 1.49 1.40 1.52 1.56 1.61 1.30 1.43 1.42 1.36 1.33 1.36 1.39 1.38 1.42 1.44 1.44 1.39 1.36 1.47 1.53 1.28 0.93 0.16 0.26 0.35 0.45 0.53 0.54 0.41 0.40 0.48 0.52 0.48 0.57 0.63 1.04 1.42 2.04 2.19 2.16 2.13 2.13 2.22 2.27 2.26 2.31 2.41 2.50 2.37 2.16 2.12 2.03 1.78 1.36 2.21 3.00 -9999.00 -9999.00 -9999.00 -9999.00 -9999.00 -9999.00 -9999.00 -9999.00 -9999.00 -9999.00 -9999.00 -9999.00 -9999.00 -9999.00 -9999.00 -9999.00 -9999.00 -9999.00 -9999.00 -9999.00 -9999.00 -9999.00 -9999.00 -9999.00 -9999.00 -9999.00 -9999.00 -9999.00 -9999.00 -9999.00 -9999.00 -9999.00 -9999.00 -9999.00 -9999.00 -9999.00 -9999.00 -9999.00 -9999.00 -9999.00 -9999.00 -9999.00 -9999.00 -9999.00 -9999.00 -9999.00 -9999.00 -9999.00 -9999.00 -9999.00 -9999.00 -9999.00 -9999.00 -9999.00 -9999.00 -9999.00 -9999.00 -9999.00 -9999.00 -9999.00 -9999.00 -9999.00 -9999.00 -9999.00 -9999.00 -9999.00 -9999.00 -9999.00 -9999.00 -9999.00 -9999.00 -9999.00 -9999.00 -9999.00 -9999.00 -9999.00 -9999.00 -9999.00 -9999.00 -9999.00 -9999.00 -9999.00 -9999.00 -9999.00 -9999.00 -9999.00 -9999.00 -9999.00 -9999.00 -9999.00 -9999.00 -9999.00 -9999.00 -9999.00 -9999.00 -9999.00 -9999.00 -9999.00 -9999.00 -9999.00 -9999.00 -9999.00 -9999.00 -9999.00 -9999.00 -9999.00 -9999.00 -9999.00 -9999.00 -9999.00 -9999.00 -9999.00 -9999.00 -9999.00 -9999.00 -9999.00 -9999.00 -9999.00 -9999.00 -9999.00
-9999.00 -9999.00 -9999.00 -9999.00 -9999.00 -9999.00 -9999.00 -9999.00 -9999.00 -9999.00 -9999.00 -9999.00 -9999.00 -9999.00 -9999.00 -18.04 -18.03 -17.98 -17.94 -17.89 -17.79 -17.77 -17.68 -17.60 -17.58 -17.54 -17.50 -17.42 -17.40 -17.36 -17.32 -17.26 -17.24 -17.19 -17.22 -17.19 -17.13 -17.12 -17.10 -17.06 -17.04 -17.03 -17.00 -16.94 -16.91 -16.88 -16.83 -16.83 -16.79 -16.74 -16.71 -16.64 -16.60 -16.62 -16.56 -16.50 -16.51 -16.46 -16.42 -16.37 -16.39 -16.34 -16.32 -16.30 -16.26 -16.20 -16.16 -16.13 -16.07 -16.04 -15.97 -15.94 -15.92 -15.88 -15.84 -15.79 -15.74 -15.71 -15.67 -15.61 -15.57 -15.49 -15.42 -15.37 -15.30 -15.18 -15.08 -15.00 -14.92 -14.81 -14.74 -14.66 -14.57 -14.49 -14.38 -14.24 -14.16 -14.03 -13.87 -13.75 -13.64 -13.47 -13.28 -13.11 -12.93 -12.75 -12.50 -12.30 -12.07 -11.79 -11.53 -11.35 -11.06 -10.81 -10.48 -10.19 -9.78 -9.48 -9.11 -8.56 -7.85 -7.03 -6.19 -5.63 -5.26 -4.92 -4.67 -4.46 -4.27 -4.09 -3.88 -3.64 -3.48 -3.23 -3.02 -2.82 -2.67 -2.55 -2.32 -2.16 -2.04 -1.90 -1.78 -1.65 -1.50 -1.30 -1.16 -1.10 -1.01 -0.91 -0.84 -0.83 -0.82 -0.72 -0.70 -0.66 -0.62 -0.52 -0.46 -0.41 -0.28 -0.28 -0.30 -0.32 -0.31 -0.14 -0.10 -0.08 -0.12 -0.14 -0.15 0.07 0.05 0.04 0.16 0.22 0.40 0.49 0.66 1.02 1.52 1.88 2.38 2.93 3.23 2.99 2.77 2.79 2.72 2.65 2.76 2.92 2.92 2.95 2.49 1.72 1.48 1.48 1.44 1.45 1.49 1.54 1.54 1.36 1.49 1.51 1.59 1.73 1.72 1.66 1.61 1.58 1.52 1.52 1.47 1.35 1.15 0.61 -0.15 -0.19 -0.15 0.24 0.28 0.38 0.48 0.52 0.41 0.39 0.37 0.51 0.41 0.31 0.30 0.55 0.70 0.76 1.21 1.54 2.08 2.26 2.29 2.44 2.27 2.33 2.39 2.49 2.44 2.29 2.14 2.22 1.98 1.32 1.77 2.60 -9999.00 -9999.00 -9999.00 -9999.00 -9999.00 -9999.00 -9999.00 -9999.00 -9999.00 -9999.00 -9999.00 -9999.00 -9999.00 -9999.00 -9999.00 -9999.00 -9999.00 -9999.00 -9999.00 -9999.00 -9999.00 -9999.00 -9999.00 -9999.00 -9999.00 -9999.00 -9999.00 -9999.00 -9999.00 -9999.00 -9999.00 -9999.00 -9999.00 -9999.00 -9999.00 -9999.00 -9999.00 -9999.00 -9999.00 -9999.00 -9999.00 -9999.00 -9999.00 -9999.00 -9999.00 -9999.00 -9999.00 -9999.00 -9999.00 -9999.00 -9999.00 -9999.00 -9999.00 -9999.00 -9999.00 -9999.00 -9999.00 -9999.00 -9999.00 -9999.00 -9999.00 -9999.00 -9999.00 -9999.00 -9999.00 -9999.00 -9999.00 -9999.00 -9999.00 -9999.00 -9999.00 -9999.00 -9999.00 -9999.00 -9999.00 -9999.00 -9999.00 -9999.00 -9999.00 -9999.00 -9999.00 -9999.00 -9999.00 -9999.00 -9999.00 -9999.00 -9999.00 -9999.00 -9999.00 -9999.00 -9999.00 -9999.00 -9999.00 -9999.00 -9999.00 -9999.00 -9999.00 -9999.00 -9999.00 -9999.00 -9999.00 -9999.00 -9999.00 -9999.00 -9999.00 -9999.00 -9999.00 -9999.00 -9999.00 -9999.00 -9999.00 -9999.00 -9999.00 -9999.00 -9999.00 -9999.00 -9999.00 -9999.00 -9999.00 -9999.00
-9999.00 -9999.00 -9999.00 -9999.00 -9999.00 -9999.00 -9999.00 -9999.00 -9999.00 -9999.00 -9999.00 -9999.00 -9999.00 -9999.00 -18.01 -18.00 -17.95 -17.91 -17.86 -17.79 -17.76 -17.67 -17.59 -17.55 -17.52 -17.48 -17.42 -17.40 -17.36 -17.31 -17.25 -17.21 -17.17 -17.18 -17.14 -17.08 -17.08 -17.05 -17.01 -17.00 -16.97 -16.94 -16.90 -16.86 -16.81 -16.83 -16.79 -16.73 -16.72 -16.64 -16.62 -16.53 -16.55 -16.55 -16.46 -16.47 -16.45 -16.37 -16.36 -16.33 -16.27 -16.25 -16.24 -16.21 -16.17 -16.15 -16.11 -16.06 -16.02 -15.98 -15.93 -15.90 -15.88 -15.81 -15.77 -15.71 -15.68 -15.63 -15.59 -15.52 -15.46 -15.40 -15.35 -15.29 -15.16 -15.09 -14.99 -14.93 -14.82 -14.74 -14.67 -14.58 -14.48 -14.39 -14.27 -14.19 -14.07 -13.90 -13.79 -13.71 -13.54 -13.35 -13.16 -12.99 -12.83 -12.65 -12.44 -12.22 -11.96 -11.70 -11.49 -11.22 -10.95 -10.63 -10.33 -9.98 -9.77 -9.40 -8.94 -8.35 -7.53 -6.70 -6.02 -5.52 -5.17 -4.91 -4.67 -4.38 -4.25 -4.07 -3.82 -3.63 -3.38 -3.18 -2.95 -2.71 -2.68 -2.41 -2.24 -2.11 -1.96 -1.83 -1.74 -1.54 -1.34 -1.18 -1.06 -0.91 -0.85 -0.73 -0.68 -0.67 -0.62 -0.55 -0.52 -0.48 -0.42 -0.37 -0.30 -0.32 -0.22 -0.20 -0.22 -0.22 -0.09 -0.07 -0.04 -0.02 -0.04 0.04 0.11 0.14 0.12 0.15 0.26 0.34 0.47 0.50 0.84 1.30 1.82 2.30 2.90 3.28 3.10 2.87 2.73 2.66 2.58 2.53 2.64 2.88 3.02 2.76 2.49 1.37 1.48 1.50 1.50 1.57 1.54 1.51 1.51 1.62 1.86 1.85 1.88 1.90 1.81 1.83 1.82 1.75 1.73 1.89 1.23 1.39 0.30 -0.46 -0.74 -0.56 0.08 0.19 0.23 0.29 0.41 0.49 0.42 0.38 0.40 0.37 0.34 0.30 0.29 0.19 0.35 0.26 0.15 -0.01 0.56 0.78 1.48 2.02 2.32 2.23 2.41 2.44 2.53 2.43 2.19 2.25 2.15 1.58 1.44 2.29 -9999.00 -9999.00 -9999.00 -9999.00 -9999.00 -9999.00 -9999.00 -9999.00 -9999.00 -9999.00 -9999.00 -9999.00 -9999.00 -9999.00 -9999.00 -9999.00 -9999.00 -9999.00 -9999.00 -9999.00 -9999.00 -9999.00 -9999.00 -9999.00 -9999.00 -9999.00 -9999.00 -9999.00 -9999.00 -9999.00 -9999.00 -9999.00 -9999.00 -9999.00 -9999.00 -9999.00 -9999.00 -9999.00 -9999.00 -9999.00 -9999.00 -9999.00 -9999.00 -9999.00 -9999.00 -9999.00 -9999.00 -9999.00 -9999.00 -9999.00 -9999.00 -9999.00 -9999.00 -9999.00 -9999.00 -9999.00 -9999.00 -9999.00 -9999.00 -9999.00 -9999.00 -9999.00 -9999.00 -9999.00 -9999.00 -9999.00 -9999.00 -9999.00 -9999.00 -9999.00 -9999.00 -9999.00 -9999.00 -9999.00 -9999.00 -9999.00 -9999.00 -9999.00 -9999.00 -9999.00 -9999.00 -9999.00 -9999.00 -9999.00 -9999.00 -9999.00 -9999.00 -9999.00 -9999.00 -9999.00 -9999.00 -9999.00 -9999.00 -9999.00 -9999.00 -9999.00 -9999.00 -9999.00 -9999.00 -9999.00 -9999.00 -9999.00 -9999.00 -9999.00 -9999.00 -9999.00 -9999.00 -9999.00 -9999.00 -9999.00 -9999.00 -9999.00 -9999.00 -9999.00 -9999.00 -9999.00 -9999.00 -9999.00 -9999.00 -9999.00
-9999.00 -9999.00 -9999.00 -9999.00 -9999.00 -9999.00 -9999.00 -9999.00 -9999.00 -9999.00 -9999.00 -9999.00 -18.03 -17.97 -17.95 -17.92 -17.87 -17.85 -17.80 -17.74 -17.67 -17.59 -17.55 -17.50 -17.47 -17.41 -17.39 -17.35 -17.30 -17.25 -17.21 -17.17 -17.15 -17.11 -17.04 -17.03 -17.00 -16.97 -16.95 -16.93 -16.86 -16.84 -16.80 -16.77 -16.77 -16.74 -16.68 -16.63 -16.60 -16.58 -16.53 -16.51 -16.49 -16.45 -16.39 -16.39 -16.36 -16.33 -16.29 -16.24 -16.21 -16.18 -16.15 -16.11 -16.10 -16.06 -16.05 -16.00 -15.99 -15.91 -15.87 -15.85 -15.79 -15.75 -15.68 -15.64 -15.59 -15.54 -15.49 -15.43 -15.36 -15.30 -15.25 -15.17 -15.08 -15.01 -14.94 -14.84 -14.74 -14.67 -14.58 -14.46 -14.41 -14.29 -14.19 -14.09 -13.97 -13.82 -13.77 -13.61 -13.42 -13.23 -13.04 -12.83 -12.72 -12.54 -12.37 -12.12 -11.88 -11.63 -11.40 -11.12 -10.79 -10.48 -10.18 -9.95 -9.61 -9.26 -8.83 -8.12 -7.27 -6.45 -5.84 -5.44 -5.12 -4.91 -4.65 -4.46 -4.26 -4.04 -3.79 -3.50 -3.33 -3.15 -2.94 -2.84 -2.49 -2.34 -2.23 -2.07 -1.89 -1.77 -1.58 -1.38 -1.21 -1.04 -0.87 -0.76 -0.67 -0.58 -0.58 -0.51 -0.43 -0.39 -0.39 -0.29 -0.26 -0.27 -0.26 -0.20 -0.15 -0.13 -0.14 -0.05 0.00 0.06 0.13 0.07 0.16 0.16 0.19 0.19 0.21 0.24 0.31 0.40 0.41 0.62 1.26 1.69 2.14 2.71 3.37 3.11 2.82 2.80 2.63 2.45 2.32 2.33 2.52 2.69 3.05 2.71 2.36 1.36 1.40 1.42 1.52 1.51 1.47 1.52 1.72 1.74 1.79 1.78 1.78 1.74 1.39 1.35 1.41 1.25 1.04 0.77 0.73 0.16 -0.49 -0.94 -0.69 -0.20 0.16 0.20 0.24 0.27 0.33 0.43 0.42 0.37 0.36 0.37 0.36 0.33 0.28 0.24 0.15 0.10 -0.06 -0.16 -0.41 -0.24 0.09 0.55 0.98 1.48 2.18 2.32 2.49 2.51 2.20 2.20 2.17 2.01 1.21 1.78 2.76 -9999.00 -9999.00 -9999.00 -9999.00 -9999.00 -9999.00 -9999.00 -9999.00 -9999.00 -9999.00 -9999.00 -9999.00 -9999.00 -9999.00 -9999.00 -9999.00 -9999.00 -9999.00 -9999.00 -9999.00 -9999.00 -9999.00 -9999.00 -9999.00 -9999.00 -9999.00 -9999.00 -9999.00 -9999.00 -9999.00 -9999.00 -9999.00 -9999.00 -9999.00 -9999.00 -9999.00 -9999.00 -9999.00 -9999.00 -9999.00 -9999.00 -9999.00 -9999.00 -9999.00 -9999.00 -9999.00 -9999.00 -9999.00 -9999.00 -9999.00 -9999.00 -9999.00 -9999.00 -9999.00 -9999.00 -9999.00 -9999.00 -9999.00 -9999.00 -9999.00 -9999.00 -9999.00 -9999.00 -9999.00 -9999.00 -9999.00 -9999.00 -9999.00 -9999.00 -9999.00 -9999.00 -9999.00 -9999.00 -9999.00 -9999.00 -9999.00 -9999.00 -9999.00 -9999.00 -9999.00 -9999.00 -9999.00 -9999.00 -9999.00 -9999.00 -9999.00 -9999.00 -9999.00 -9999.00 -9999.00 -9999.00 -9999.00 -9999.00 -9999.00 -9999.00 -9999.00 -9999.00 -9999.00 -9999.00 -9999.00 -9999.00 -9999.00 -9999.00 -9999.00 -9999.00 -9999.00 -9999.00 -9999.00 -9999.00 -9999.00 -9999.00 -9999.00 -9999.00 -9999.00 -9999.00 -9999.00 -9999.00 -9999.00 -9999.00
-9999.00 -9999.00 -9999.00 -9999.00 -9999.00 -9999.00 -9999.00 -9999.00 -9999.00 -9999.00 -9999.00 -17.98 -17.94 -17.91 -17.88 -17.84 -17.82 -17.78 -17.73 -17.67 -17.59 -17.55 -17.50 -17.46 -17.40 -17.39 -17.34 -17.29 -17.24 -17.21 -17.17 -17.14 -17.09 -17.04 -16.99 -16.96 -16.92 -16.90 -16.87 -16.83 -16.79 -16.75 -16.76 -16.72 -16.64 -16.64 -16.59 -16.55 -16.53 -16.49 -16.47 -16.45 -16.43 -16.39 -16.34 -16.30 -16.28 -16.25 -16.23 -16.16 -16.15 -16.11 -16.05 -16.05 -16.00 -15.99 -15.97 -15.98 -15.89 -15.85 -15.82 -15.76 -15.72 -15.66 -15.61 -15.57 -15.51 -15.45 -15.39 -15.31 -15.26 -15.22 -15.14 -15.06 -14.99 -14.92 -14.85 -14.74 -14.67 -14.58 -14.47 -14.42 -14.31 -14.20 -14.09 -13.99 -13.87 -13.74 -13.66 -13.45 -13.33 -13.15 -12.91 -12.78 -12.57 -12.43 -12.23 -12.03 -11.81 -11.57 -11.31 -11.00 -10.69 -10.42 -10.12 -9.79 -9.46 -9.12 -8.67 -7.88 -7.08 -6.28 -5.67 -5.33 -5.06 -4.84 -4.66 -4.45 -4.23 -3.96 -3.71 -3.48 -3.34 -3.18 -3.00 -2.72 -2.51 -2.34 -2.16 -1.86 -1.82 -1.65 -1.43 -1.26 -1.08 -0.92 -0.81 -0.72 -0.65 -0.57 -0.42 -0.35 -0.27 -0.23 -0.26 -0.25 -0.21 -0.18 -0.17 -0.09 -0.06 -0.05 -0.02 0.06 0.12 0.20 0.18 0.26 0.21 0.25 0.28 0.26 0.32 0.34 0.35 0.41 0.47 0.93 1.53 1.93 2.51 3.02 3.22 3.01 2.66 2.59 2.50 2.27 2.12 2.12 2.16 2.28 2.64 2.73 2.54 2.30 1.29 1.46 1.47 1.43 1.52 1.53 1.56 1.55 1.55 1.52 1.48 1.41 0.96 0.77 0.66 0.51 0.37 0.11 0.05 -0.24 -0.55 -0.61 -0.09 0.10 0.26 0.23 0.29 0.24 0.31 0.37 0.33 0.33 0.34 0.42 0.38 0.35 0.30 0.27 0.18 0.12 0.10 0.05 -0.05 -0.02 -0.09 -0.15 -0.06 0.11 0.79 1.30 2.09 2.08 2.16 2.13 2.19 2.33 1.26 1.39 1.51 -9999.00 -9999.00 -9999.00 -9999.00 -9999.00 -9999.00 -9999.00 -9999.00 -9999.00 -9999.00 -9999.00 -9999.00 -9999.00 -9999.00 -9999.00 -9999.00 -9999.00 -9999.00 -9999.00 -9999.00 -9999.00 -9999.00 -9999.00 -9999.00 -9999.00 -9999.00 -9999.00 -9999.00 -9999.00 -9999.00 -9999.00 -9999.00 -9999.00 -9999.00 -9999.00 -9999.00 -9999.00 -9999.00 -9999.00 -9999.00 -9999.00 -9999.00 -9999.00 -9999.00 -9999.00 -9999.00 -9999.00 -9999.00 -9999.00 -9999.00 -9999.00 -9999.00 -9999.00 -9999.00 -9999.00 -9999.00 -9999.00 -9999.00 -9999.00 -9999.00 -9999.00 -9999.00 -9999.00 -9999.00 -9999.00 -9999.00 -9999.00 -9999.00 -9999.00 -9999.00 -9999.00 -9999.00 -9999.00 -9999.00 -9999.00 -9999.00 -9999.00 -9999.00 -9999.00 -9999.00 -9999.00 -9999.00 -9999.00 -9999.00 -9999.00 -9999.00 -9999.00 -9999.00 -9999.00 -9999.00 -9999.00 -9999.00 -9999.00 -9999.00 -9999.00 -9999.00 -9999.00 -9999.00 -9999.00 -9999.00 -9999.00 -9999.00 -9999.00 -9999.00 -9999.00 -9999.00 -9999.00 -9999.00 -9999.00 -9999.00 -9999.00 -9999.00 -9999.00 -9999.00 -9999.00 -9999.00 -9999.00 -9999.00 -9999.00
-9999.00 -9999.00 -9999.00 -9999.00 -9999.00 -9999.00 -9999.00 -9999.00 -9999.00 -9999.00 -17.95 -17.91 -17.86 -17.84 -17.80 -17.79 -17.75 -17.70 -17.69 -17.60 -17.55 -17.51 -17.46 -17.41 -17.38 -17.33 -17.28 -17.25 -17.20 -17.17 -17.13 -17.08 -17.04 -16.98 -16.95 -16.90 -16.85 -16.79 -16.78 -16.73 -16.72 -16.70 -16.66 -16.62 -16.57 -16.56 -16.51 -16.48 -16.44 -16.42 -16.41 -16.39 -16.35 -16.30 -16.26 -16.22 -16.20 -16.18 -16.13 -16.13 -16.08 -16.04 -16.01 -15.95 -15.92 -15.93 -15.92 -15.87 -15.83 -15.80 -15.76 -15.69 -15.65 -15.59 -15.54 -15.48 -15.41 -15.34 -15.28 -15.23 -15.17 -15.11 -15.03 -14.97 -14.90 -14.83 -14.74 -14.68 -14.59 -14.49 -14.43 -14.35 -14.21 -14.11 -14.01 -13.89 -13.77 -13.65 -13.55 -13.38 -13.23 -13.05 -12.92 -12.71 -12.49 -12.30 -12.09 -11.92 -11.72 -11.50 -11.22 -10.91 -10.65 -10.34 -9.99 -9.67 -9.38 -8.92 -8.32 -7.65 -7.00 -6.27 -5.71 -5.24 -5.00 -4.79 -4.59 -4.40 -4.20 -3.92 -3.70 -3.53 -3.36 -3.15 -2.95 -2.69 -2.50 -2.30 -2.07 -1.91 -1.72 -1.51 -1.38 -1.24 -1.08 -0.88 -0.77 -0.68 -0.60 -0.54 -0.42 -0.29 -0.22 -0.16 -0.19 -0.18 -0.16 -0.09 -0.06 -0.07 -0.03 0.01 0.12 0.19 0.25 0.32 0.37 0.36 0.33 0.31 0.35 0.39 0.37 0.41 0.43 0.51 0.95 1.42 2.01 2.39 2.90 3.29 3.10 2.90 2.75 2.62 2.44 2.21 1.98 1.78 1.70 1.89 2.22 2.48 2.57 2.46 1.92 1.43 1.47 1.46 1.42 1.47 1.35 1.24 1.05 0.76 0.64 0.50 0.20 0.25 0.16 0.13 0.09 0.01 -0.08 -0.27 -0.22 -0.01 0.25 0.30 0.33 0.33 0.34 0.25 0.28 0.27 0.33 0.46 0.49 0.41 0.44 0.42 0.39 0.34 0.30 0.32 0.30 0.29 0.24 0.19 0.12 0.06 0.04 -0.07 -0.22 -0.05 0.28 1.00 2.32 2.18 2.25 2.38 2.29 1.13 1.25 -9999.00 -9999.00 -9999.00 -9999.00 -9999.00 -9999.00 -9999.00 -9999.00 -9999.00 -9999.00 -9999.00 -9999.00 -9999.00 -9999.00 -9999.00 -9999.00 -9999.00 -9999.00 -9999.00 -9999.00 -9999.00 -9999.00 -9999.00 -9999.00 -9999.00 -9999.00 -9999.00 -9999.00 -9999.00 -9999.00 -9999.00 -9999.00 -9999.00 -9999.00 -9999.00 -9999.00 -9999.00 -9999.00 -9999.00 -9999.00 -9999.00 -9999.00 -9999.00 -9999.00 -9999.00 -9999.00 -9999.00 -9999.00 -9999.00 -9999.00 -9999.00 -9999.00 -9999.00 -9999.00 -9999.00 -9999.00 -9999.00 -9999.00 -9999.00 -9999.00 -9999.00 -9999.00 -9999.00 -9999.00 -9999.00 -9999.00 -9999.00 -9999.00 -9999.00 -9999.00 -9999.00 -9999.00 -9999.00 -9999.00 -9999.00 -9999.00 -9999.00 -9999.00 -9999.00 -9999.00 -9999.00 -9999.00 -9999.00 -9999.00 -9999.00 -9999.00 -9999.00 -9999.00 -9999.00 -9999.00 -9999.00 -9999.00 -9999.00 -9999.00 -9999.00 -9999.00 -9999.00 -9999.00 -9999.00 -9999.00 -9999.00 -9999.00 -9999.00 -9999.00 -9999.00 -9999.00 -9999.00 -9999.00 -9999.00 -9999.00 -9999.00 -9999.00 -9999.00 -9999.00 -9999.00 -9999.00 -9999.00 -9999.00 -9999.00
-9999.00 -9999.00 -9999.00 -9999.00 -9999.00 -9999.00 -9999.00 -9999.00 -9999.00 -17.91 -17.88 -17.81 -17.81 -17.77 -17.74 -17.72 -17.70 -17.67 -17.60 -17.54 -17.51 -17.45 -17.41 -17.38 -17.31 -17.28 -17.25 -17.20 -17.16 -17.12 -17.06 -17.04 -16.97 -16.93 -16.88 -16.84 -16.77 -16.72 -16.68 -16.68 -16.64 -16.56 -16.56 -16.52 -16.50 -16.46 -16.44 -16.41 -16.38 -16.36 -16.34 -16.32 -16.26 -16.23 -16.17 -16.17 -16.13 -16.10 -16.07 -16.03 -16.00 -15.99 -15.93 -15.88 -15.88 -15.84 -15.82 -15.77 -15.76 -15.74 -15.67 -15.62 -15.58 -15.51 -15.45 -15.38 -15.31 -15.24 -15.17 -15.13 -15.06 -15.01 -14.95 -14.88 -14.81 -14.72 -14.66 -14.59 -14.51 -14.43 -14.36 -14.22 -14.12 -14.03 -13.91 -13.79 -13.67 -13.55 -13.41 -13.27 -13.10 -13.01 -12.88 -12.63 -12.42 -12.17 -11.99 -11.80 -11.61 -11.41 -11.13 -10.88 -10.58 -10.25 -9.93 -9.65 -9.19 -8.68 -8.10 -7.48 -6.83 -6.15 -5.59 -5.22 -4.92 -4.68 -4.45 -4.29 -4.12 -3.91 -3.72 -3.57 -3.36 -3.12 -2.96 -2.70 -2.52 -2.29 -2.06 -1.78 -1.59 -1.43 -1.29 -1.18 -1.01 -0.90 -0.82 -0.76 -0.63 -0.48 -0.36 -0.22 -0.19 -0.10 -0.12 -0.10 -0.10 -0.01 -0.03 -0.00 0.03 0.16 0.22 0.30 0.36 0.36 0.40 0.44 0.39 0.41 0.43 0.48 0.50 0.49 0.52 0.90 1.42 1.74 2.26 3.10 3.43 3.10 3.00 2.84 2.72 2.63 2.50 2.32 1.91 1.67 1.87 1.77 1.67 1.93 2.19 2.26 2.04 1.37 1.37 1.23 1.04 0.84 0.59 0.41 0.41 0.44 0.29 0.17 0.11 0.07 0.02 0.03 -0.07 -0.08 -0.21 -0.07 0.03 0.17 0.31 0.37 0.39 0.40 0.37 0.29 0.28 0.37 0.47 0.50 0.52 0.54 0.55 0.56 0.53 0.49 0.44 0.48 0.57 0.58 0.51 0.41 0.36 0.27 0.22 0.12 0.09 0.01 -0.00 -0.10 0.50 1.45 2.17 2.31 2.34 2.30 1.39 -9999.00 -9999.00 -9999.00 -9999.00 -9999.00 -9999.00 -9999.00 -9999.00 -9999.00 -9999.00 -9999.00 -9999.00 -9999.00 -9999.00 -9999.00 -9999.00 -9999.00 -9999.00 -9999.00 -9999.00 -9999.00 -9999.00 -9999.00 -9999.00 -9999.00 -9999.00 -9999.00 -9999.00 -9999.00 -9999.00 -9999.00 -9999.00 -9999.00 -9999.00 -9999.00 -9999.00 -9999.00 -9999.00 -9999.00 -9999.00 -9999.00 -9999.00 -9999.00 -9999.00 -9999.00 -9999.00 -9999.00 -9999.00 -9999.00 -9999.00 -9999.00 -9999.00 -9999.00 -9999.00 -9999.00 -9999.00 -9999.00 -9999.00 -9999.00 -9999.00 -9999.00 -9999.00 -9999.00 -9999.00 -9999.00 -9999.00 -9999.00 -9999.00 -9999.00 -9999.00 -9999.00 -9999.00 -9999.00 -9999.00 -9999.00 -9999.00 -9999.00 -9999.00 -9999.00 -9999.00 -9999.00 -9999.00 -9999.00 -9999.00 -9999.00 -9999.00 -9999.00 -9999.00 -9999.00 -9999.00 -9999.00 -9999.00 -9999.00 -9999.00 -9999.00 -9999.00 -9999.00 -9999.00 -9999.00 -9999.00 -9999.00 -9999.00 -9999.00 -9999.00 -9999.00 -9999.00 -9999.00 -9999.00 -9999.00 -9999.00 -9999.00 -9999.00 -9999.00 -9999.00 -9999.00 -9999.00 -9999.00 -9999.00 -9999.00
-9999.00 -9999.00 -9999.00 -9999.00 -9999.00 -9999.00 -9999.00 -9999.00 -17.94 -17.89 -17.81 -17.78 -17.74 -17.72 -17.70 -17.69 -17.66 -17.60 -17.54 -17.52 -17.45 -17.41 -17.37 -17.31 -17.27 -17.24 -17.21 -17.16 -17.10 -17.05 -17.03 -16.96 -16.92 -16.87 -16.83 -16.76 -16.70 -16.68 -16.63 -16.59 -16.55 -16.50 -16.48 -16.45 -16.41 -16.39 -16.37 -16.33 -16.32 -16.30 -16.28 -16.23 -16.19 -16.13 -16.14 -16.10 -16.07 -16.03 -15.99 -15.96 -15.94 -15.91 -15.87 -15.85 -15.80 -15.78 -15.72 -15.69 -15.65 -15.62 -15.58 -15.56 -15.49 -15.42 -15.37 -15.29 -15.25 -15.15 -15.11 -15.04 -14.96 -14.91 -14.88 -14.78 -14.69 -14.63 -14.58 -14.50 -14.41 -14.37 -14.25 -14.14 -14.04 -13.92 -13.81 -13.69 -13.57 -13.45 -13.31 -13.15 -13.02 -12.91 -12.73 -12.53 -12.31 -12.13 -11.89 -11.71 -11.48 -11.26 -11.08 -10.82 -10.50 -10.21 -9.91 -9.51 -9.04 -8.54 -7.93 -7.26 -6.58 -5.98 -5.47 -5.12 -4.84 -4.56 -4.32 -4.22 -4.08 -3.88 -3.76 -3.56 -3.35 -3.10 -2.85 -2.70 -2.51 -2.24 -1.90 -1.71 -1.51 -1.30 -1.22 -1.08 -0.97 -0.92 -0.78 -0.73 -0.62 -0.49 -0.32 -0.21 -0.14 -0.05 -0.03 -0.02 0.04 0.08 0.05 0.11 0.09 0.21 0.25 0.32 0.40 0.46 0.47 0.48 0.52 0.58 0.55 0.57 0.58 0.57 0.71 1.33 1.71 2.11 2.69 3.32 3.32 2.95 2.81 2.71 2.68 2.55 2.52 2.57 2.35 2.11 2.00 1.87 1.75 1.74 1.85 2.04 2.04 1.17 0.75 0.54 0.38 0.40 0.44 0.50 0.41 0.33 0.23 0.11 0.03 0.00 -0.04 -0.11 -0.09 -0.03 0.11 0.19 0.28 0.40 0.52 0.51 0.54 0.46 0.55 0.41 0.51 0.49 0.57 0.62 0.57 0.63 0.66 0.68 0.65 0.61 0.59 0.64 0.73 0.71 0.67 0.56 0.49 0.42 0.36 0.29 0.23 0.17 0.10 0.02 -0.02 0.04 0.75 1.77 2.38 2.32 1.43 -9999.00 -9999.00 -9999.00 -9999.00 -9999.00 -9999.00 -9999.00 -9999.00 -9999.00 -9999.00 -9999.00 -9999.00 -9999.00 -9999.00 -9999.00 -9999.00 -9999.00 -9999.00 -9999.00 -9999.00 -9999.00 -9999.00 -9999.00 -9999.00 -9999.00 -9999.00 -9999.00 -9999.00 -9999.00 -9999.00 -9999.00 -9999.00 -9999.00 -9999.00 -9999.00 -9999.00 -9999.00 -9999.00 -9999.00 -9999.00 -9999.00 -9999.00 -9999.00 -9999.00 -9999.00 -9999.00 -9999.00 -9999.00 -9999.00 -9999.00 -9999.00 -9999.00 -9999.00 -9999.00 -9999.00 -9999.00 -9999.00 -9999.00 -9999.00 -9999.00 -9999.00 -9999.00 -9999.00 -9999.00 -9999.00 -9999.00 -9999.00 -9999.00 -9999.00 -9999.00 -9999.00 -9999.00 -9999.00 -9999.00 -9999.00 -9999.00 -9999.00 -9999.00 -9999.00 -9999.00 -9999.00 -9999.00 -9999.00 -9999.00 -9999.00 -9999.00 -9999.00 -9999.00 -9999.00 -9999.00 -9999.00 -9999.00 -9999.00 -9999.00 -9999.00 -9999.00 -9999.00 -9999.00 -9999.00 -9999.00 -9999.00 -9999.00 -9999.00 -9999.00 -9999.00 -9999.00 -9999.00 -9999.00 -9999.00 -9999.00 -9999.00 -9999.00 -9999.00 -9999.00 -9999.00 -9999.00 -9999.00 -9999.00 -9999.00
-9999.00 -9999.00 -9999.00 -9999.00 -9999.00 -9999.00 -9999.00 -17.94 -17.89 -17.83 -17.81 -17.75 -17.70 -17.67 -17.66 -17.64 -17.61 -17.54 -17.51 -17.44 -17.41 -17.37 -17.30 -17.27 -17.22 -17.20 -17.14 -17.09 -17.04 -17.01 -16.95 -16.90 -16.85 -16.81 -16.76 -16.71 -16.67 -16.62 -16.53 -16.48 -16.46 -16.44 -16.41 -16.36 -16.34 -16.33 -16.29 -16.27 -16.26 -16.23 -16.19 -16.15 -16.10 -16.10 -16.06 -16.04 -16.00 -15.98 -15.94 -15.89 -15.89 -15.83 -15.81 -15.78 -15.72 -15.67 -15.60 -15.57 -15.55 -15.52 -15.50 -15.46 -15.41 -15.36 -15.26 -15.23 -15.15 -15.08 -15.01 -14.92 -14.89 -14.86 -14.77 -14.68 -14.61 -14.55 -14.49 -14.39 -14.35 -14.25 -14.15 -14.05 -13.94 -13.82 -13.70 -13.60 -13.50 -13.37 -13.19 -13.05 -12.93 -12.78 -12.60 -12.44 -12.29 -12.06 -11.84 -11.60 -11.34 -11.15 -10.94 -10.71 -10.48 -10.20 -9.82 -9.41 -8.94 -8.40 -7.68 -7.02 -6.48 -5.93 -5.40 -4.99 -4.74 -4.52 -4.30 -4.20 -4.07 -3.90 -3.74 -3.53 -3.33 -3.11 -2.95 -2.70 -2.45 -2.17 -1.85 -1.65 -1.50 -1.32 -1.13 -1.00 -0.92 -0.85 -0.75 -0.62 -0.53 -0.40 -0.30 -0.17 -0.08 -0.02 0.05 0.09 0.16 0.12 0.14 0.19 0.20 0.30 0.39 0.45 0.48 0.50 0.59 0.61 0.62 0.60 0.65 0.68 0.60 0.75 1.27 1.67 2.01 2.59 3.08 3.31 3.19 2.90 2.71 2.54 2.45 2.34 2.42 2.31 2.18 2.05 1.90 1.75 1.65 1.63 1.64 1.77 1.88 0.74 0.37 0.44 0.42 0.48 0.44 0.35 0.16 -0.00 0.03 0.06 -0.01 -0.04 -0.00 0.11 0.20 0.29 0.41 0.51 0.56 0.62 0.73 0.81 0.82 0.58 0.57 0.54 0.60 0.61 0.62 0.65 0.64 0.72 0.79 0.80 0.81 0.75 0.75 0.80 0.76 0.77 0.73 0.72 0.59 0.55 0.53 0.44 0.36 0.29 0.23 0.16 0.12 0.12 0.10 0.60 1.80 2.12 1.34 1.24 -9999.00 -9999.00 -9999.00 -9999.00 -9999.00 -9999.00 -9999.00 -9999.00 -9999.00 -9999.00 -9999.00 -9999.00 -9999.00 -9999.00 -9999.00 -9999.00 -9999.00 -9999.00 -9999.00 -9999.00 -9999.00 -9999.00 -9999.00 -9999.00 -9999.00 -9999.00 -9999.00 -9999.00 -9999.00 -9999.00 -9999.00 -9999.00 -9999.00 -9999.00 -9999.00 -9999.00 -9999.00 -9999.00 -9999.00 -9999.00 -9999.00 -9999.00 -9999.00 -9999.00 -9999.00 -9999.00 -9999.00 -9999.00 -9999.00 -9999.00 -9999.00 -9999.00 -9999.00 -9999.00 -9999.00 -9999.00 -9999.00 -9999.00 -9999.00 -9999.00 -9999.00 -9999.00 -9999.00 -9999.00 -9999.00 -9999.00 -9999.00 -9999.00 -9999.00 -9999.00 -9999.00 -9999.00 -9999.00 -9999.00 -9999.00 -9999.00 -9999.00 -9999.00 -9999.00 -9999.00 -9999.00 -9999.00 -9999.00 -9999.00 -9999.00 -9999.00 -9999.00 -9999.00 -9999.00 -9999.00 -9999.00 -9999.00 -9999.00 -9999.00 -9999.00 -9999.00 -9999.00 -9999.00 -9999.00 -9999.00 -9999.00 -9999.00 -9999.00 -9999.00 -9999.00 -9999.00 -9999.00 -9999.00 -9999.00 -9999.00 -9999.00 -9999.00 -9999.00 -9999.00 -9999.00 -9999.00 -9999.00 -9999.00
-9999.00 -9999.00 -9999.00 -9999.00 -9999.00 -18.00 -17.94 -17.90 -17.85 -17.82 -17.77 -17.72 -17.67 -17.64 -17.61 -17.60 -17.53 -17.50 -17.44 -17.41 -17.36 -17.29 -17.26 -17.21 -17.20 -17.13 -17.08 -17.03 -16.99 -16.93 -16.89 -16.84 -16.79 -16.76 -16.72 -16.67 -16.61 -16.53 -16.47 -16.42 -16.41 -16.35 -16.31 -16.29 -16.27 -16.24 -16.23 -16.21 -16.18 -16.16 -16.11 -16.07 -16.07 -16.02 -16.00 -15.96 -15.95 -15.90 -15.87 -15.83 -15.79 -15.77 -15.73 -15.67 -15.63 -15.58 -15.52 -15.48 -15.45 -15.44 -15.39 -15.35 -15.33 -15.25 -15.20 -15.15 -15.06 -14.99 -14.91 -14.86 -14.83 -14.74 -14.66 -14.59 -14.54 -14.46 -14.38 -14.32 -14.26 -14.14 -14.04 -13.97 -13.89 -13.81 -13.69 -13.54 -13.43 -13.25 -13.10 -12.96 -12.82 -12.67 -12.54 -12.36 -12.18 -12.01 -11.76 -11.52 -11.27 -11.03 -10.85 -10.58 -10.37 -10.12 -9.77 -9.36 -8.85 -8.19 -7.50 -6.92 -6.44 -5.97 -5.36 -4.95 -4.71 -4.47 -4.32 -4.19 -4.04 -3.82 -3.63 -3.50 -3.27 -3.11 -2.91 -2.65 -2.40 -2.12 -1.83 -1.64 -1.42 -1.23 -1.07 -0.90 -0.87 -0.82 -0.65 -0.59 -0.49 -0.36 -0.22 -0.08 -0.02 0.01 0.10 0.16 0.24 0.22 0.22 0.27 0.31 0.40 0.46 0.58 0.61 0.57 0.66 0.68 0.68 0.72 0.73 0.79 0.87 1.20 1.63 1.99 2.41 2.95 3.39 3.25 3.02 2.85 2.65 2.42 2.16 2.08 2.10 2.06 1.99 1.83 1.74 1.61 1.52 1.53 1.63 1.64 1.61 0.56 0.49 0.44 0.47 0.41 0.22 0.12 0.01 -0.02 -0.01 0.01 0.08 0.17 0.28 0.33 0.46 0.49 0.69 0.78 0.77 0.85 0.84 0.65 0.47 0.31 0.47 0.49 0.56 0.55 0.61 0.72 0.79 0.86 0.90 0.91 0.92 0.87 0.92 0.89 0.91 0.92 0.86 0.81 0.75 0.71 0.66 0.56 0.48 0.44 0.33 0.24 0.22 0.16 0.06 -0.01 0.78 1.10 0.88 1.76 -9999.00 -9999.00 -9999.00 -9999.00 -9999.00 -9999.00 -9999.00 -9999.00 -9999.00 -9999.00 -9999.00 -9999.00 -9999.00 -9999.00 -9999.00 -9999.00 -9999.00 -9999.00 -9999.00 -9999.00 -9999.00 -9999.00 -9999.00 -9999.00 -9999.00 -9999.00 -9999.00 -9999.00 -9999.00 -9999.00 -9999.00 -9999.00 -9999.00 -9999.00 -9999.00 -9999.00 -9999.00 -9999.00 -9999.00 -9999.00 -9999.00 -9999.00 -9999.00 -9999.00 -9999.00 -9999.00 -9999.00 -9999.00 -9999.00 -9999.00 -9999.00 -9999.00 -9999.00 -9999.00 -9999.00 -9999.00 -9999.00 -9999.00 -9999.00 -9999.00 -9999.00 -9999.00 -9999.00 -9999.00 -9999.00 -9999.00 -9999.00 -9999.00 -9999.00 -9999.00 -9999.00 -9999.00 -9999.00 -9999.00 -9999.00 -9999.00 -9999.00 -9999.00 -9999.00 -9999.00 -9999.00 -9999.00 -9999.00 -9999.00 -9999.00 -9999.00 -9999.00 -9999.00 -9999.00 -9999.00 -9999.00 -9999.00 -9999.00 -9999.00 -9999.00 -9999.00 -9999.00 -9999.00 -9999.00 -9999.00 -9999.00 -9999.00 -9999.00 -9999.00 -9999.00 -9999.00 -9999.00 -9999.00 -9999.00 -9999.00 -9999.00 -9999.00 -9999.00 -9999.00 -9999.00 -9999.00 -9999.00 -9999.00
-9999.00 -9999.00 -9999.00 -9999.00 -18.01 -17.96 -17.90 -17.88 -17.83 -17.79 -17.73 -17.69 -17.64 -17.61 -17.59 -17.51 -17.50 -17.43 -17.41 -17.36 -17.28 -17.25 -17.20 -17.19 -17.12 -17.07 -17.02 -16.97 -16.92 -16.86 -16.82 -16.79 -16.73 -16.71 -16.66 -16.59 -16.51 -16.46 -16.41 -16.40 -16.31 -16.27 -16.24 -16.22 -16.20 -16.19 -16.17 -16.15 -16.12 -16.07 -16.03 -16.03 -15.98 -15.96 -15.92 -15.91 -15.86 -15.83 -15.78 -15.74 -15.70 -15.69 -15.67 -15.59 -15.56 -15.48 -15.44 -15.41 -15.36 -15.31 -15.26 -15.26 -15.19 -15.15 -15.14 -15.08 -14.98 -14.90 -14.84 -14.81 -14.73 -14.63 -14.56 -14.52 -14.44 -14.38 -14.30 -14.24 -14.12 -14.04 -13.96 -13.90 -13.80 -13.70 -13.60 -13.48 -13.30 -13.18 -13.05 -12.90 -12.74 -12.62 -12.43 -12.27 -12.12 -11.89 -11.71 -11.45 -11.22 -10.94 -10.71 -10.46 -10.22 -9.95 -9.69 -9.30 -8.72 -8.08 -7.48 -6.96 -6.51 -5.83 -5.33 -4.98 -4.67 -4.47 -4.29 -4.10 -3.93 -3.76 -3.62 -3.40 -3.36 -3.12 -2.86 -2.59 -2.38 -2.07 -1.85 -1.61 -1.36 -1.19 -1.00 -0.93 -0.81 -0.77 -0.60 -0.50 -0.42 -0.26 -0.09 -0.03 0.03 0.08 0.14 0.24 0.25 0.29 0.32 0.36 0.40 0.50 0.57 0.58 0.66 0.68 0.75 0.79 0.75 0.84 0.82 0.89 1.07 1.54 1.89 2.33 2.75 3.39 3.33 3.15 2.92 2.75 2.58 2.22 1.93 1.69 1.72 1.70 1.75 1.67 1.52 1.39 1.42 1.46 1.48 1.61 0.66 0.57 0.51 0.45 0.41 0.29 0.11 -0.03 0.01 0.01 0.04 0.18 0.24 0.39 0.47 0.62 0.66 0.75 0.83 0.80 0.71 0.71 0.58 0.43 0.32 0.40 0.46 0.51 0.64 0.75 0.80 0.86 1.00 0.97 1.02 1.04 1.04 1.02 1.05 1.04 0.94 1.04 0.97 1.00 0.94 0.90 0.78 0.68 0.57 0.49 0.42 0.32 0.26 0.23 0.12 -0.04 -0.09 0.16 0.58 1.50 -9999.00 -9999.00 -9999.00 -9999.00 -9999.00 -9999.00 -9999.00 -9999.00 -9999.00 -9999.00 -9999.00 -9999.00 -9999.00 -9999.00 -9999.00 -9999.00 -9999.00 -9999.00 -9999.00 -9999.00 -9999.00 -9999.00 -9999.00 -9999.00 -9999.00 -9999.00 -9999.00 -9999.00 -9999.00 -9999.00 -9999.00 -9999.00 -9999.00 -9999.00 -9999.00 -9999.00 -9999.00 -9999.00 -9999.00 -9999.00 -9999.00 -9999.00 -9999.00 -9999.00 -9999.00 -9999.00 -9999.00 -9999.00 -9999.00 -9999.00 -9999.00 -9999.00 -9999.00 -9999.00 -9999.00 -9999.00 -9999.00 -9999.00 -9999.00 -9999.00 -9999.00 -9999.00 -9999.00 -9999.00 -9999.00 -9999.00 -9999.00 -9999.00 -9999.00 -9999.00 -9999.00 -9999.00 -9999.00 -9999.00 -9999.00 -9999.00 -9999.00 -9999.00 -9999.00 -9999.00 -9999.00 -9999.00 -9999.00 -9999.00 -9999.00 -9999.00 -9999.00 -9999.00 -9999.00 -9999.00 -9999.00 -9999.00 -9999.00 -9999.00 -9999.00 -9999.00 -9999.00 -9999.00 -9999.00 -9999.00 -9999.00 -9999.00 -9999.00 -9999.00 -9999.00 -9999.00 -9999.00 -9999.00 -9999.00 -9999.00 -9999.00 -9999.00 -9999.00 -9999.00 -9999.00 -9999.00 -9999.00 -9999.00
-9999.00 -9999.00 -9999.00 -18.03 -17.97 -17.93 -17.88 -17.85 -17.80 -17.74 -17.70 -17.65 -17.62 -17.59 -17.53 -17.47 -17.43 -17.40 -17.37 -17.28 -17.25 -17.20 -17.18 -17.12 -17.06 -17.01 -16.95 -16.92 -16.85 -16.81 -16.78 -16.73 -16.71 -16.66 -16.57 -16.51 -16.45 -16.41 -16.38 -16.30 -16.27 -16.21 -16.16 -16.15 -16.13 -16.12 -16.10 -16.09 -16.03 -15.99 -15.99 -15.94 -15.92 -15.88 -15.87 -15.83 -15.79 -15.74 -15.70 -15.66 -15.64 -15.60 -15.55 -15.52 -15.44 -15.41 -15.41 -15.32 -15.28 -15.21 -15.20 -15.13 -15.10 -15.06 -15.05 -14.98 -14.90 -14.83 -14.78 -14.72 -14.62 -14.55 -14.49 -14.44 -14.36 -14.29 -14.23 -14.12 -14.04 -13.96 -13.90 -13.80 -13.69 -13.58 -13.52 -13.37 -13.26 -13.13 -12.99 -12.84 -12.70 -12.51 -12.35 -12.21 -12.04 -11.85 -11.61 -11.40 -11.20 -10.92 -10.62 -10.34 -10.06 -9.79 -9.52 -9.16 -8.66 -8.08 -7.53 -7.06 -6.38 -5.66 -5.25 -4.91 -4.64 -4.43 -4.26 -4.06 -3.90 -3.74 -3.51 -3.43 -3.23 -3.04 -2.82 -2.56 -2.31 -2.06 -1.85 -1.56 -1.38 -1.13 -0.95 -0.77 -0.68 -0.60 -0.46 -0.41 -0.35 -0.22 -0.12 0.01 0.09 0.15 0.21 0.32 0.32 0.32 0.37 0.47 0.51 0.57 0.63 0.67 0.73 0.77 0.86 0.91 0.89 0.87 0.89 1.04 1.44 1.83 2.14 2.77 3.20 3.29 3.11 2.89 2.75 2.54 2.32 2.07 1.64 1.21 1.23 1.26 1.37 1.44 1.32 1.35 1.35 1.39 1.41 0.82 0.54 0.56 0.43 0.36 0.25 0.19 0.06 -0.01 0.05 0.09 0.19 0.30 0.41 0.57 0.67 0.77 0.79 0.83 0.73 0.66 0.56 0.48 0.37 0.31 0.38 0.45 0.57 0.70 0.81 0.91 1.04 1.02 1.14 1.10 1.08 1.07 1.10 1.10 1.09 1.10 1.13 1.11 1.13 1.11 1.10 1.12 1.03 0.93 0.76 0.56 0.47 0.43 0.39 0.30 0.29 0.09 -0.09 -0.06 0.16 0.87 -9999.00 -9999.00 -9999.00 -9999.00 -9999.00 -9999.00 -9999.00 -9999.00 -9999.00 -9999.00 -9999.00 -9999.00 -9999.00 -9999.00 -9999.00 -9999.00 -9999.00 -9999.00 -9999.00 -9999.00 -9999.00 -9999.00 -9999.00 -9999.00 -9999.00 -9999.00 -9999.00 -9999.00 -9999.00 -9999.00 -9999.00 -9999.00 -9999.00 -9999.00 -9999.00 -9999.00 -9999.00 -9999.00 -9999.00 -9999.00 -9999.00 -9999.00 -9999.00 -9999.00 -9999.00 -9999.00 -9999.00 -9999.00 -9999.00 -9999.00 -9999.00 -9999.00 -9999.00 -9999.00 -9999.00 -9999.00 -9999.00 -9999.00 -9999.00 -9999.00 -9999.00 -9999.00 -9999.00 -9999.00 -9999.00 -9999.00 -9999.00 -9999.00 -9999.00 -9999.00 -9999.00 -9999.00 -9999.00 -9999.00 -9999.00 -9999.00 -9999.00 -9999.00 -9999.00 -9999.00 -9999.00 -9999.00 -9999.00 -9999.00 -9999.00 -9999.00 -9999.00 -9999.00 -9999.00 -9999.00 -9999.00 -9999.00 -9999.00 -9999.00 -9999.00 -9999.00 -9999.00 -9999.00 -9999.00 -9999.00 -9999.00 -9999.00 -9999.00 -9999.00 -9999.00 -9999.00 -9999.00 -9999.00 -9999.00 -9999.00 -9999.00 -9999.00 -9999.00 -9999.00 -9999.00 -9999.00 -9999.00 -9999.00
-9999.00 -9999.00 -18.04 -17.99 -17.95 -17.88 -17.85 -17.81 -17.76 -17.72 -17.64 -17.62 -17.59 -17.53 -17.47 -17.42 -17.39 -17.36 -17.26 -17.24 -17.19 -17.18 -17.11 -17.05 -17.00 -16.95 -16.91 -16.83 -16.80 -16.76 -16.72 -16.70 -16.63 -16.54 -16.49 -16.44 -16.40 -16.36 -16.30 -16.28 -16.21 -16.16 -16.12 -16.08 -16.07 -16.06 -16.06 -15.99 -15.96 -15.95 -15.90 -15.88 -15.84 -15.83 -15.80 -15.75 -15.70 -15.66 -15.63 -15.60 -15.54 -15.49 -15.45 -15.40 -15.40 -15.37 -15.32 -15.24 -15.21 -15.13 -15.12 -15.03 -14.99 -14.98 -14.93 -14.87 -14.82 -14.75 -14.69 -14.62 -14.54 -14.48 -14.43 -14.35 -14.26 -14.21 -14.11 -14.02 -13.96 -13.89 -13.80 -13.70 -13.58 -13.47 -13.39 -13.26 -13.19 -13.07 -12.94 -12.78 -12.63 -12.43 -12.28 -12.15 -12.01 -11.75 -11.54 -11.33 -11.07 -10.84 -10.54 -10.25 -9.95 -9.64 -9.39 -8.98 -8.56 -8.09 -7.60 -6.94 -6.20 -5.59 -5.15 -4.78 -4.58 -4.42 -4.21 -4.00 -3.83 -3.60 -3.48 -3.30 -3.09 -2.94 -2.73 -2.54 -2.24 -2.06 -1.82 -1.56 -1.33 -1.12 -0.90 -0.83 -0.69 -0.52 -0.42 -0.35 -0.29 -0.17 -0.10 0.03 0.18 0.22 0.30 0.35 0.38 0.42 0.41 0.42 0.53 0.59 0.59 0.70 0.76 0.86 0.94 1.03 1.02 1.04 1.09 1.33 1.73 1.99 2.43 2.99 3.20 3.09 2.94 2.73 2.50 2.37 2.13 1.88 1.27 1.00 1.05 1.15 1.18 1.19 1.26 1.27 1.33 1.31 1.07 0.55 0.44 0.44 0.28 0.20 0.10 -0.01 0.06 0.00 0.07 0.25 0.36 0.49 0.64 0.74 0.79 0.68 0.58 0.62 0.52 0.42 0.33 0.28 0.34 0.41 0.52 0.65 0.81 0.87 0.93 0.92 0.99 1.03 1.08 1.11 1.12 1.15 1.17 1.19 1.15 1.16 1.21 1.22 1.21 1.19 1.15 1.17 1.18 1.26 1.09 0.98 0.66 0.54 0.65 0.41 0.31 0.31 0.15 0.07 0.15 0.24 0.65 -9999.00 -9999.00 -9999.00 -9999.00 -9999.00 -9999.00 -9999.00 -9999.00 -9999.00 -9999.00 -9999.00 -9999.00 -9999.00 -9999.00 -9999.00 -9999.00 -9999.00 -9999.00 -9999.00 -9999.00 -9999.00 -9999.00 -9999.00 -9999.00 -9999.00 -9999.00 -9999.00 -9999.00 -9999.00 -9999.00 -9999.00 -9999.00 -9999.00 -9999.00 -9999.00 -9999.00 -9999.00 -9999.00 -9999.00 -9999.00 -9999.00 -9999.00 -9999.00 -9999.00 -9999.00 -9999.00 -9999.00 -9999.00 -9999.00 -9999.00 -9999.00 -9999.00 -9999.00 -9999.00 -9999.00 -9999.00 -9999.00 -9999.00 -9999.00 -9999.00 -9999.00 -9999.00 -9999.00 -9999.00 -9999.00 -9999.00 -9999.00 -9999.00 -9999.00 -9999.00 -9999.00 -9999.00 -9999.00 -9999.00 -9999.00 -9999.00 -9999.00 -9999.00 -9999.00 -9999.00 -9999.00 -9999.00 -9999.00 -9999.00 -9999.00 -9999.00 -9999.00 -9999.00 -9999.00 -9999.00 -9999.00 -9999.00 -9999.00 -9999.00 -9999.00 -9999.00 -9999.00 -9999.00 -9999.00 -9999.00 -9999.00 -9999.00 -9999.00 -9999.00 -9999.00 -9999.00 -9999.00 -9999.00 -9999.00 -9999.00 -9999.00 -9999.00 -9999.00 -9999.00 -9999.00 -9999.00 -9999.00
-9999.00 -18.05 -17.99 -17.95 -17.90 -17.85 -17.81 -17.76 -17.72 -17.64 -17.61 -17.59 -17.53 -17.47 -17.41 -17.38 -17.34 -17.26 -17.24 -17.19 -17.17 -17.10 -17.04 -16.99 -16.93 -16.90 -16.82 -16.80 -16.75 -16.72 -16.69 -16.62 -16.54 -16.48 -16.42 -16.40 -16.35 -16.31 -16.29 -16.22 -16.16 -16.14 -16.08 -16.06 -16.01 -16.01 -15.95 -15.93 -15.92 -15.86 -15.83 -15.80 -15.78 -15.77 -15.71 -15.67 -15.63 -15.61 -15.57 -15.51 -15.46 -15.41 -15.35 -15.33 -15.32 -15.28 -15.21 -15.16 -15.11 -15.08 -15.04 -14.95 -14.92 -14.87 -14.81 -14.78 -14.72 -14.69 -14.60 -14.54 -14.46 -14.41 -14.33 -14.24 -14.19 -14.11 -14.02 -13.94 -13.87 -13.80 -13.70 -13.61 -13.47 -13.35 -13.28 -13.17 -13.07 -12.97 -12.85 -12.73 -12.53 -12.38 -12.25 -12.13 -11.87 -11.70 -11.46 -11.23 -11.00 -10.76 -10.47 -10.18 -9.91 -9.61 -9.24 -8.89 -8.50 -8.11 -7.44 -6.66 -5.99 -5.47 -4.99 -4.72 -4.49 -4.32 -4.14 -3.91 -3.71 -3.53 -3.32 -3.19 -3.00 -2.82 -2.64 -2.41 -2.28 -2.05 -1.79 -1.53 -1.29 -1.10 -0.89 -0.76 -0.66 -0.50 -0.42 -0.31 -0.27 -0.17 -0.07 0.04 0.17 0.23 0.22 0.25 0.34 0.36 0.39 0.44 0.50 0.50 0.57 0.70 0.77 0.85 0.99 1.11 1.16 1.22 1.33 1.54 1.91 2.30 2.66 3.16 3.06 2.88 2.81 2.58 2.36 2.16 1.96 1.66 1.03 1.05 1.07 1.11 1.15 1.15 1.25 1.28 1.28 1.31 0.54 0.43 0.29 0.24 0.10 0.00 -0.04 -0.08 0.00 0.00 0.15 0.37 0.50 0.69 0.65 0.59 0.53 0.48 0.48 0.34 0.34 0.42 0.42 0.42 0.46 0.54 0.61 0.71 0.74 0.86 0.96 1.04 1.14 1.16 1.14 1.21 1.31 1.41 1.49 1.54 1.58 1.53 1.52 1.53 1.51 1.49 1.33 1.29 1.19 1.18 1.16 1.07 1.07 0.91 0.71 0.52 0.44 0.41 0.29 0.14 0.06 0.08 0.13 -9999.00 -9999.00 -9999.00 -9999.00 -9999.00 -9999.00 -9999.00 -9999.00 -9999.00 -9999.00 -9999.00 -9999.00 -9999.00 -9999.00 -9999.00 -9999.00 -9999.00 -9999.00 -9999.00 -9999.00 -9999.00 -9999.00 -9999.00 -9999.00 -9999.00 -9999.00 -9999.00 -9999.00 -9999.00 -9999.00 -9999.00 -9999.00 -9999.00 -9999.00 -9999.00 -9999.00 -9999.00 -9999.00 -9999.00 -9999.00 -9999.00 -9999.00 -9999.00 -9999.00 -9999.00 -9999.00 -9999.00 -9999.00 -9999.00 -9999.00 -9999.00 -9999.00 -9999.00 -9999.00 -9999.00 -9999.00 -9999.00 -9999.00 -9999.00 -9999.00 -9999.00 -9999.00 -9999.00 -9999.00 -9999.00 -9999.00 -9999.00 -9999.00 -9999.00 -9999.00 -9999.00 -9999.00 -9999.00 -9999.00 -9999.00 -9999.00 -9999.00 -9999.00 -9999.00 -9999.00 -9999.00 -9999.00 -9999.00 -9999.00 -9999.00 -9999.00 -9999.00 -9999.00 -9999.00 -9999.00 -9999.00 -9999.00 -9999.00 -9999.00 -9999.00 -9999.00 -9999.00 -9999.00 -9999.00 -9999.00 -9999.00 -9999.00 -9999.00 -9999.00 -9999.00 -9999.00 -9999.00 -9999.00 -9999.00 -9999.00 -9999.00 -9999.00 -9999.00 -9999.00 -9999.00 -9999.00 -9999.00
-18.07 -18.01 -17.97 -17.91 -17.84 -17.81 -17.77 -17.72 -17.64 -17.61 -17.59 -17.53 -17.47 -17.41 -17.37 -17.33 -17.26 -17.22 -17.20 -17.16 -17.09 -17.03 -16.98 -16.91 -16.88 -16.81 -16.79 -16.73 -16.71 -16.67 -16.60 -16.54 -16.47 -16.41 -16.39 -16.35 -16.30 -16.29 -16.22 -16.18 -16.12 -16.07 -16.05 -16.03 -15.97 -15.91 -15.90 -15.88 -15.83 -15.79 -15.76 -15.74 -15.73 -15.66 -15.63 -15.59 -15.58 -15.53 -15.47 -15.42 -15.38 -15.33 -15.28 -15.24 -15.22 -15.16 -15.09 -15.06 -15.05 -15.03 -15.01 -14.92 -14.83 -14.78 -14.74 -14.68 -14.63 -14.57 -14.49 -14.44 -14.39 -14.31 -14.26 -14.18 -14.10 -14.02 -13.94 -13.89 -13.79 -13.70 -13.61 -13.51 -13.36 -13.30 -13.17 -13.06 -12.98 -12.85 -12.76 -12.63 -12.47 -12.34 -12.19 -11.98 -11.82 -11.61 -11.39 -11.14 -10.92 -10.68 -10.43 -10.13 -9.83 -9.53 -9.20 -8.86 -8.46 -7.86 -7.15 -6.37 -5.79 -5.22 -4.82 -4.59 -4.46 -4.26 -4.01 -3.75 -3.62 -3.40 -3.30 -3.07 -2.92 -2.70 -2.43 -2.29 -2.17 -1.92 -1.68 -1.45 -1.28 -1.04 -0.86 -0.74 -0.63 -0.49 -0.42 -0.32 -0.20 -0.10 -0.02 0.07 0.14 0.06 0.06 0.04 0.15 0.13 0.26 0.32 0.42 0.51 0.62 0.69 0.78 0.87 0.94 1.07 1.20 1.39 1.47 1.70 1.96 2.38 2.79 3.13 2.87 2.77 2.60 2.42 2.15 1.95 1.71 1.55 1.08 1.06 1.07 1.10 1.13 1.15 1.23 1.26 1.27 0.60 0.35 0.25 0.01 -0.02 -0.08 -0.13 -0.08 -0.16 -0.18 0.03 0.31 0.53 0.56 0.41 0.42 0.44 0.42 0.35 0.35 0.29 0.32 0.40 0.41 0.50 0.54 0.66 0.75 0.90 1.10 1.20 1.25 1.28 1.36 1.43 1.58 1.61 1.62 1.64 1.63 1.65 1.65 1.65 1.67 1.68 1.69 1.69 1.59 1.56 1.49 1.37 1.27 1.24 1.14 1.07 0.95 0.75 0.61 0.52 0.39 0.26 0.26 0.18 0.12 0.14 -9999.00 -9999.00 -9999.00 -9999.00 -9999.00 -9999.00 -9999.00 -9999.00 -9999.00 -9999.00 -9999.00 -9999.00 -9999.00 -9999.00 -9999.00 -9999.00 -9999.00 -9999.00 -9999.00 -9999.00 -9999.00 -9999.00 -9999.00 -9999.00 -9999.00 -9999.00 -9999.00 -9999.00 -9999.00 -9999.00 -9999.00 -9999.00 -9999.00 -9999.00 -9999.00 -9999.00 -9999.00 -9999.00 -9999.00 -9999.00 -9999.00 -9999.00 -9999.00 -9999.00 -9999.00 -9999.00 -9999.00 -9999.00 -9999.00 -9999.00 -9999.00 -9999.00 -9999.00 -9999.00 -9999.00 -9999.00 -9999.00 -9999.00 -9999.00 -9999.00 -9999.00 -9999.00 -9999.00 -9999.00 -9999.00 -9999.00 -9999.00 -9999.00 -9999.00 -9999.00 -9999.00 -9999.00 -9999.00 -9999.00 -9999.00 -9999.00 -9999.00 -9999.00 -9999.00 -9999.00 -9999.00 -9999.00 -9999.00 -9999.00 -9999.00 -9999.00 -9999.00 -9999.00 -9999.00 -9999.00 -9999.00 -9999.00 -9999.00 -9999.00 -9999.00 -9999.00 -9999.00 -9999.00 -9999.00 -9999.00 -9999.00 -9999.00 -9999.00 -9999.00 -9999.00 -9999.00 -9999.00 -9999.00 -9999.00 -9999.00 -9999.00 -9999.00 -9999.00 -9999.00 -9999.00 -9999.00
-18.03 -17.98 -17.94 -17.84 -17.81 -17.77 -17.71 -17.64 -17.60 -17.57 -17.52 -17.47 -17.40 -17.36 -17.31 -17.25 -17.20 -17.16 -17.13 -17.07 -17.01 -16.98 -16.90 -16.87 -16.80 -16.78 -16.71 -16.69 -16.64 -16.57 -16.52 -16.47 -16.42 -16.38 -16.34 -16.31 -16.30 -16.22 -16.17 -16.12 -16.07 -16.05 -16.02 -15.97 -15.89 -15.88 -15.84 -15.80 -15.75 -15.72 -15.71 -15.71 -15.62 -15.59 -15.56 -15.54 -15.50 -15.44 -15.39 -15.34 -15.30 -15.25 -15.22 -15.17 -15.11 -15.07 -15.01 -15.00 -14.95 -14.94 -14.88 -14.83 -14.76 -14.73 -14.65 -14.60 -14.55 -14.47 -14.41 -14.37 -14.31 -14.25 -14.17 -14.08 -14.01 -13.94 -13.87 -13.81 -13.71 -13.60 -13.51 -13.37 -13.26 -13.16 -13.06 -12.97 -12.87 -12.75 -12.66 -12.51 -12.41 -12.25 -12.09 -11.92 -11.75 -11.52 -11.29 -11.09 -10.86 -10.62 -10.36 -10.08 -9.78 -9.47 -9.17 -8.83 -8.30 -7.65 -6.76 -6.07 -5.44 -4.94 -4.72 -4.55 -4.34 -4.10 -3.79 -3.73 -3.51 -3.34 -3.13 -3.01 -2.75 -2.56 -2.38 -2.25 -2.02 -1.79 -1.56 -1.44 -1.21 -1.00 -0.81 -0.64 -0.55 -0.45 -0.39 -0.29 -0.17 -0.07 0.04 0.15 0.12 0.04 -0.11 0.02 0.08 0.10 0.19 0.23 0.33 0.41 0.47 0.61 0.70 0.80 0.93 1.06 1.18 1.31 1.47 1.70 2.02 2.40 2.80 3.07 2.83 2.59 2.46 2.17 1.89 1.72 1.53 1.36 1.11 1.11 1.09 1.09 1.12 1.17 1.23 1.18 0.58 0.26 0.13 -0.04 -0.14 -0.18 -0.23 -0.24 -0.21 -0.26 -0.21 0.09 0.44 0.29 0.39 0.38 0.38 0.38 0.25 0.27 0.35 0.34 0.30 0.36 0.46 0.62 0.71 0.96 1.19 1.30 1.38 1.44 1.47 1.53 1.60 1.68 1.68 1.77 1.81 1.76 1.72 1.70 1.76 1.75 1.68 1.71 1.70 1.77 1.73 1.71 1.63 1.55 1.43 1.33 1.31 1.23 1.13 1.04 0.86 0.66 0.57 0.43 0.29 0.25 0.19 0.13 -0.01 -9999.00 -9999.00 -9999.00 -9999.00 -9999.00 -9999.00 -9999.00 -9999.00 -9999.00 -9999.00 -9999.00 -9999.00 -9999.00 -9999.00 -9999.00 -9999.00 -9999.00 -9999.00 -9999.00 -9999.00 -9999.00 -9999.00 -9999.00 -9999.00 -9999.00 -9999.00 -9999.00 -9999.00 -9999.00 -9999.00 -9999.00 -9999.00 -9999.00 -9999.00 -9999.00 -9999.00 -9999.00 -9999.00 -9999.00 -9999.00 -9999.00 -9999.00 -9999.00 -9999.00 -9999.00 -9999.00 -9999.00 -9999.00 -9999.00 -9999.00 -9999.00 -9999.00 -9999.00 -9999.00 -9999.00 -9999.00 -9999.00 -9999.00 -9999.00 -9999.00 -9999.00 -9999.00 -9999.00 -9999.00 -9999.00 -9999.00 -9999.00 -9999.00 -9999.00 -9999.00 -9999.00 -9999.00 -9999.00 -9999.00 -9999.00 -9999.00 -9999.00 -9999.00 -9999.00 -9999.00 -9999.00 -9999.00 -9999.00 -9999.00 -9999.00 -9999.00 -9999.00 -9999.00 -9999.00 -9999.00 -9999.00 -9999.00 -9999.00 -9999.00 -9999.00 -9999.00 -9999.00 -9999.00 -9999.00 -9999.00 -9999.00 -9999.00 -9999.00 -9999.00 -9999.00 -9999.00 -9999.00 -9999.00 -9999.00 -9999.00 -9999.00 -9999.00 -9999.00 -9999.00 -9999.00
-17.96 -17.94 -17.86 -17.81 -17.78 -17.71 -17.64 -17.58 -17.54 -17.51 -17.44 -17.38 -17.35 -17.30 -17.25 -17.19 -17.15 -17.10 -17.05 -16.99 -16.95 -16.90 -16.84 -16.79 -16.76 -16.69 -16.67 -16.62 -16.56 -16.50 -16.47 -16.42 -16.37 -16.32 -16.32 -16.31 -16.22 -16.17 -16.12 -16.07 -16.04 -16.01 -15.96 -15.88 -15.85 -15.81 -15.77 -15.71 -15.67 -15.67 -15.69 -15.58 -15.55 -15.53 -15.51 -15.47 -15.41 -15.36 -15.31 -15.28 -15.23 -15.19 -15.13 -15.10 -15.06 -15.01 -14.96 -14.89 -14.88 -14.84 -14.80 -14.73 -14.71 -14.66 -14.58 -14.52 -14.44 -14.39 -14.33 -14.28 -14.20 -14.15 -14.05 -14.01 -13.94 -13.86 -13.80 -13.70 -13.64 -13.50 -13.32 -13.31 -13.19 -13.11 -12.99 -12.88 -12.78 -12.65 -12.54 -12.43 -12.29 -12.17 -12.02 -11.88 -11.65 -11.46 -11.25 -11.04 -10.81 -10.59 -10.32 -10.02 -9.77 -9.51 -9.18 -8.76 -8.23 -7.33 -6.22 -5.51 -5.02 -4.81 -4.61 -4.39 -4.10 -3.83 -3.80 -3.59 -3.36 -3.17 -3.04 -2.88 -2.64 -2.39 -2.28 -2.10 -1.93 -1.66 -1.51 -1.29 -1.10 -0.91 -0.72 -0.59 -0.47 -0.36 -0.26 -0.24 -0.16 -0.06 0.06 0.19 0.07 0.02 -0.08 -0.01 0.15 0.14 0.21 0.24 0.34 0.36 0.42 0.46 0.56 0.66 0.80 0.91 1.07 1.23 1.38 1.65 2.01 2.38 2.66 2.99 2.71 2.51 2.39 2.09 1.81 1.55 1.44 1.18 1.04 1.08 1.13 1.11 1.11 1.10 1.02 0.38 0.31 0.06 -0.18 -0.31 -0.34 -0.36 -0.43 -0.40 -0.46 -0.33 -0.05 0.20 0.28 0.31 0.42 0.37 0.37 0.28 0.26 0.22 0.28 0.31 0.30 0.41 0.68 0.84 0.97 1.08 1.36 1.46 1.49 1.53 1.61 1.69 1.72 1.74 1.80 1.88 1.89 1.93 1.90 1.84 1.82 1.81 1.79 1.84 1.78 1.80 1.81 1.77 1.80 1.72 1.62 1.39 1.41 1.40 1.33 1.21 1.04 0.93 0.79 0.58 0.50 0.37 0.29 0.27 0.10 -9999.00 -9999.00 -9999.00 -9999.00 -9999.00 -9999.00 -9999.00 -9999.00 -9999.00 -9999.00 -9999.00 -9999.00 -9999.00 -9999.00 -9999.00 -9999.00 -9999.00 -9999.00 -9999.00 -9999.00 -9999.00 -9999.00 -9999.00 -9999.00 -9999.00 -9999.00 -9999.00 -9999.00 -9999.00 -9999.00 -9999.00 -9999.00 -9999.00 -9999.00 -9999.00 -9999.00 -9999.00 -9999.00 -9999.00 -9999.00 -9999.00 -9999.00 -9999.00 -9999.00 -9999.00 -9999.00 -9999.00 -9999.00 -9999.00 -9999.00 -9999.00 -9999.00 -9999.00 -9999.00 -9999.00 -9999.00 -9999.00 -9999.00 -9999.00 -9999.00 -9999.00 -9999.00 -9999.00 -9999.00 -9999.00 -9999.00 -9999.00 -9999.00 -9999.00 -9999.00 -9999.00 -9999.00 -9999.00 -9999.00 -9999.00 -9999.00 -9999.00 -9999.00 -9999.00 -9999.00 -9999.00 -9999.00 -9999.00 -9999.00 -9999.00 -9999.00 -9999.00 -9999.00 -9999.00 -9999.00 -9999.00 -9999.00 -9999.00 -9999.00 -9999.00 -9999.00 -9999.00 -9999.00 -9999.00 -9999.00 -9999.00 -9999.00 -9999.00 -9999.00 -9999.00 -9999.00 -9999.00 -9999.00 -9999.00 -9999.00 -9999.00 -9999.00 -9999.00 -9999.00 -9999.00
-17.91 -17.84 -17.80 -17.78 -17.70 -17.63 -17.57 -17.52 -17.49 -17.42 -17.35 -17.32 -17.28 -17.25 -17.19 -17.13 -17.07 -17.03 -16.97 -16.92 -16.88 -16.83 -16.78 -16.74 -16.69 -16.66 -16.61 -16.56 -16.49 -16.46 -16.41 -16.36 -16.31 -16.31 -16.29 -16.22 -16.17 -16.12 -16.07 -16.04 -15.98 -15.95 -15.88 -15.84 -15.78 -15.75 -15.69 -15.65 -15.63 -15.67 -15.54 -15.50 -15.50 -15.47 -15.44 -15.38 -15.32 -15.29 -15.25 -15.20 -15.16 -15.11 -15.07 -15.03 -14.98 -14.93 -14.88 -14.83 -14.78 -14.74 -14.71 -14.64 -14.61 -14.56 -14.48 -14.43 -14.36 -14.30 -14.25 -14.17 -14.11 -14.04 -13.99 -13.94 -13.85 -13.79 -13.70 -13.63 -13.52 -13.41 -13.32 -13.22 -13.12 -13.03 -12.92 -12.82 -12.69 -12.60 -12.44 -12.33 -12.18 -12.06 -11.97 -11.79 -11.63 -11.43 -11.22 -11.00 -10.81 -10.57 -10.30 -10.03 -9.76 -9.49 -9.15 -8.80 -8.12 -7.17 -6.14 -5.01 -4.67 -4.53 -4.50 -4.16 -3.83 -3.73 -3.65 -3.42 -3.24 -3.06 -2.94 -2.76 -2.50 -2.32 -2.18 -1.95 -1.77 -1.62 -1.44 -1.26 -1.06 -0.87 -0.69 -0.59 -0.49 -0.41 -0.26 -0.17 -0.09 0.01 0.15 0.27 0.13 -0.04 -0.17 -0.05 -0.01 0.08 0.19 0.31 0.30 0.36 0.42 0.48 0.54 0.63 0.69 0.80 0.87 1.01 1.19 1.48 1.87 2.26 2.56 2.83 2.76 2.64 2.55 2.36 1.82 1.58 1.21 1.10 1.06 1.06 1.05 1.06 0.99 0.72 0.36 0.23 -0.12 -0.21 -0.29 -0.45 -0.57 -0.55 -0.60 -0.61 -0.58 -0.21 0.11 0.24 0.37 0.49 0.47 0.39 0.27 0.18 0.20 0.19 0.23 0.33 0.31 0.66 0.91 0.88 1.02 0.95 0.98 1.14 1.29 1.37 1.51 1.53 1.66 1.75 1.79 1.81 1.95 2.01 2.05 2.03 2.01 1.92 1.96 1.95 1.87 1.89 1.83 1.80 1.86 1.83 1.75 1.67 1.64 1.56 1.47 1.34 1.22 1.09 1.00 0.80 0.71 0.59 0.47 0.44 0.36 0.33 0.25 -9999.00 -9999.00 -9999.00 -9999.00 -9999.00 -9999.00 -9999.00 -9999.00 -9999.00 -9999.00 -9999.00 -9999.00 -9999.00 -9999.00 -9999.00 -9999.00 -9999.00 -9999.00 -9999.00 -9999.00 -9999.00 -9999.00 -9999.00 -9999.00 -9999.00 -9999.00 -9999.00 -9999.00 -9999.00 -9999.00 -9999.00 -9999.00 -9999.00 -9999.00 -9999.00 -9999.00 -9999.00 -9999.00 -9999.00 -9999.00 -9999.00 -9999.00 -9999.00 -9999.00 -9999.00 -9999.00 -9999.00 -9999.00 -9999.00 -9999.00 -9999.00 -9999.00 -9999.00 -9999.00 -9999.00 -9999.00 -9999.00 -9999.00 -9999.00 -9999.00 -9999.00 -9999.00 -9999.00 -9999.00 -9999.00 -9999.00 -9999.00 -9999.00 -9999.00 -9999.00 -9999.00 -9999.00 -9999.00 -9999.00 -9999.00 -9999.00 -9999.00 -9999.00 -9999.00 -9999.00 -9999.00 -9999.00 -9999.00 -9999.00 -9999.00 -9999.00 -9999.00 -9999.00 -9999.00 -9999.00 -9999.00 -9999.00 -9999.00 -9999.00 -9999.00 -9999.00 -9999.00 -9999.00 -9999.00 -9999.00 -9999.00 -9999.00 -9999.00 -9999.00 -9999.00 -9999.00 -9999.00 -9999.00 -9999.00 -9999.00 -9999.00 -9999.00 -9999.00
-17.82 -17.79 -17.75 -17.68 -17.63 -17.55 -17.50 -17.47 -17.40 -17.33 -17.29 -17.25 -17.23 -17.17 -17.12 -17.06 -17.01 -16.95 -16.90 -16.87 -16.81 -16.77 -16.73 -16.67 -16.64 -16.60 -16.56 -16.49 -16.46 -16.39 -16.35 -16.30 -16.29 -16.26 -16.21 -16.15 -16.12 -16.06 -16.03 -15.98 -15.93 -15.87 -15.83 -15.77 -15.73 -15.68 -15.64 -15.62 -15.64 -15.50 -15.47 -15.47 -15.42 -15.40 -15.35 -15.29 -15.26 -15.22 -15.16 -15.12 -15.07 -15.04 -15.00 -14.95 -14.90 -14.86 -14.81 -14.75 -14.70 -14.68 -14.58 -14.55 -14.51 -14.45 -14.41 -14.36 -14.30 -14.23 -14.15 -14.08 -14.03 -13.97 -13.92 -13.83 -13.78 -13.69 -13.63 -13.54 -13.42 -13.34 -13.26 -13.15 -13.08 -12.97 -12.85 -12.73 -12.63 -12.47 -12.36 -12.21 -12.08 -11.99 -11.86 -11.74 -11.60 -11.40 -11.18 -10.97 -10.77 -10.54 -10.26 -10.03 -9.78 -9.48 -9.18 -8.75 -8.17 -7.29 -6.22 -5.26 -4.46 -4.29 -4.18 -3.89 -3.66 -3.70 -3.54 -3.35 -3.14 -2.93 -2.85 -2.61 -2.44 -2.26 -2.07 -1.88 -1.75 -1.52 -1.37 -1.22 -1.08 -0.89 -0.69 -0.57 -0.45 -0.30 -0.23 -0.14 -0.01 0.12 0.20 0.26 0.19 0.01 -0.16 -0.08 -0.01 0.06 0.15 0.35 0.34 0.37 0.46 0.49 0.54 0.66 0.71 0.79 0.89 0.97 1.00 1.30 1.66 2.06 2.36 2.55 2.71 2.78 2.71 2.59 2.41 2.26 1.66 1.25 1.01 1.04 0.88 0.71 0.52 0.34 -0.01 -0.27 -0.31 -0.37 -0.42 -0.59 -0.66 -0.65 -0.63 -0.67 -0.14 0.19 0.33 0.47 0.47 0.47 0.41 0.29 0.11 -0.03 -0.00 0.11 0.33 0.36 0.99 1.21 1.23 1.29 1.31 1.31 1.23 1.03 0.88 1.14 1.20 1.42 1.53 1.61 1.75 1.81 1.90 1.99 2.06 2.14 2.09 2.06 2.02 2.09 1.97 1.96 1.92 1.81 1.84 1.82 1.90 1.79 1.76 1.65 1.54 1.50 1.34 1.22 1.10 1.07 0.94 0.72 0.60 0.56 0.61 0.66 0.57 0.32 -9999.00 -9999.00 -9999.00 -9999.00 -9999.00 -9999.00 -9999.00 -9999.00 -9999.00 -9999.00 -9999.00 -9999.00 -9999.00 -9999.00 -9999.00 -9999.00 -9999.00 -9999.00 -9999.00 -9999.00 -9999.00 -9999.00 -9999.00 -9999.00 -9999.00 -9999.00 -9999.00 -9999.00 -9999.00 -9999.00 -9999.00 -9999.00 -9999.00 -9999.00 -9999.00 -9999.00 -9999.00 -9999.00 -9999.00 -9999.00 -9999.00 -9999.00 -9999.00 -9999.00 -9999.00 -9999.00 -9999.00 -9999.00 -9999.00 -9999.00 -9999.00 -9999.00 -9999.00 -9999.00 -9999.00 -9999.00 -9999.00 -9999.00 -9999.00 -9999.00 -9999.00 -9999.00 -9999.00 -9999.00 -9999.00 -9999.00 -9999.00 -9999.00 -9999.00 -9999.00 -9999.00 -9999.00 -9999.00 -9999.00 -9999.00 -9999.00 -9999.00 -9999.00 -9999.00 -9999.00 -9999.00 -9999.00 -9999.00 -9999.00 -9999.00 -9999.00 -9999.00 -9999.00 -9999.00 -9999.00 -9999.00 -9999.00 -9999.00 -9999.00 -9999.00 -9999.00 -9999.00 -9999.00 -9999.00 -9999.00 -9999.00 -9999.00 -9999.00 -9999.00 -9999.00 -9999.00 -9999.00 -9999.00 -9999.00 -9999.00 -9999.00 -9999.00
-17.77 -17.72 -17.67 -17.60 -17.53 -17.48 -17.45 -17.37 -17.30 -17.26 -17.23 -17.20 -17.15 -17.09 -17.05 -16.99 -16.93 -16.88 -16.86 -16.80 -16.76 -16.72 -16.64 -16.63 -16.59 -16.54 -16.49 -16.46 -16.38 -16.33 -16.29 -16.28 -16.24 -16.19 -16.13 -16.11 -16.05 -16.02 -15.98 -15.92 -15.86 -15.81 -15.76 -15.70 -15.66 -15.64 -15.59 -15.58 -15.50 -15.45 -15.44 -15.37 -15.37 -15.31 -15.26 -15.24 -15.19 -15.14 -15.09 -15.04 -15.00 -14.96 -14.92 -14.87 -14.84 -14.79 -14.73 -14.68 -14.62 -14.58 -14.51 -14.47 -14.45 -14.38 -14.33 -14.30 -14.21 -14.15 -14.07 -14.01 -13.93 -13.88 -13.82 -13.76 -13.68 -13.62 -13.54 -13.44 -13.38 -13.28 -13.18 -13.09 -12.98 -12.87 -12.76 -12.65 -12.53 -12.40 -12.26 -12.11 -12.02 -11.93 -11.78 -11.66 -11.53 -11.36 -11.17 -10.96 -10.74 -10.50 -10.30 -10.04 -9.80 -9.53 -9.18 -8.77 -8.29 -7.37 -6.39 -5.40 -4.77 -4.21 -3.94 -3.75 -3.68 -3.60 -3.43 -3.28 -3.10 -2.98 -2.77 -2.55 -2.40 -2.22 -2.02 -1.87 -1.60 -1.45 -1.30 -1.15 -1.00 -0.85 -0.70 -0.54 -0.48 -0.29 -0.22 -0.14 -0.01 0.09 0.17 0.25 0.25 0.11 -0.05 -0.14 -0.04 0.06 0.12 0.26 0.33 0.34 0.33 0.45 0.52 0.63 0.74 0.72 0.83 0.88 0.86 0.99 1.28 1.59 2.03 2.30 2.45 2.52 2.55 2.62 2.48 2.35 2.33 2.28 2.16 1.70 0.75 0.44 0.04 -0.46 -0.41 -0.37 -0.43 -0.45 -0.55 -0.65 -0.74 -0.62 -0.62 -0.04 0.41 0.57 0.55 0.48 0.38 0.27 -0.23 -0.24 -0.08 -0.20 0.09 0.35 0.50 0.96 1.07 1.16 1.17 1.25 1.31 1.33 1.35 1.38 1.38 1.30 1.05 0.91 1.38 1.44 1.63 1.75 1.84 1.94 1.98 2.01 2.11 2.13 2.12 2.12 2.16 2.09 1.98 1.85 1.80 1.83 1.79 1.80 1.84 1.71 1.67 1.56 1.50 1.40 1.27 1.19 1.09 0.92 0.74 0.67 0.64 0.73 0.76 0.57 0.22 -9999.00 -9999.00 -9999.00 -9999.00 -9999.00 -9999.00 -9999.00 -9999.00 -9999.00 -9999.00 -9999.00 -9999.00 -9999.00 -9999.00 -9999.00 -9999.00 -9999.00 -9999.00 -9999.00 -9999.00 -9999.00 -9999.00 -9999.00 -9999.00 -9999.00 -9999.00 -9999.00 -9999.00 -9999.00 -9999.00 -9999.00 -9999.00 -9999.00 -9999.00 -9999.00 -9999.00 -9999.00 -9999.00 -9999.00 -9999.00 -9999.00 -9999.00 -9999.00 -9999.00 -9999.00 -9999.00 -9999.00 -9999.00 -9999.00 -9999.00 -9999.00 -9999.00 -9999.00 -9999.00 -9999.00 -9999.00 -9999.00 -9999.00 -9999.00 -9999.00 -9999.00 -9999.00 -9999.00 -9999.00 -9999.00 -9999.00 -9999.00 -9999.00 -9999.00 -9999.00 -9999.00 -9999.00 -9999.00 -9999.00 -9999.00 -9999.00 -9999.00 -9999.00 -9999.00 -9999.00 -9999.00 -9999.00 -9999.00 -9999.00 -9999.00 -9999.00 -9999.00 -9999.00 -9999.00 -9999.00 -9999.00 -9999.00 -9999.00 -9999.00 -9999.00 -9999.00 -9999.00 -9999.00 -9999.00 -9999.00 -9999.00 -9999.00 -9999.00 -9999.00 -9999.00 -9999.00 -9999.00 -9999.00 -9999.00 -9999.00 -9999.00
-17.70 -17.64 -17.58 -17.51 -17.46 -17.44 -17.35 -17.27 -17.23 -17.20 -17.16 -17.13 -17.05 -17.02 -16.97 -16.91 -16.86 -16.84 -16.78 -16.74 -16.70 -16.63 -16.60 -16.56 -16.52 -16.50 -16.45 -16.37 -16.32 -16.28 -16.26 -16.22 -16.17 -16.11 -16.08 -16.03 -16.00 -15.96 -15.90 -15.84 -15.79 -15.75 -15.68 -15.65 -15.63 -15.57 -15.56 -15.49 -15.45 -15.42 -15.34 -15.34 -15.27 -15.23 -15.20 -15.16 -15.11 -15.04 -15.00 -14.97 -14.94 -14.90 -14.85 -14.81 -14.78 -14.72 -14.67 -14.62 -14.57 -14.52 -14.48 -14.43 -14.35 -14.31 -14.27 -14.19 -14.16 -14.06 -14.01 -13.94 -13.86 -13.81 -13.74 -13.68 -13.60 -13.54 -13.46 -13.40 -13.28 -13.21 -13.13 -13.01 -12.90 -12.79 -12.68 -12.59 -12.45 -12.33 -12.19 -12.08 -11.97 -11.84 -11.70 -11.56 -11.44 -11.30 -11.16 -10.95 -10.74 -10.50 -10.28 -10.04 -9.79 -9.55 -9.26 -8.86 -8.32 -7.49 -6.54 -5.56 -4.88 -4.30 -3.96 -3.75 -3.59 -3.50 -3.42 -3.26 -3.09 -2.92 -2.68 -2.55 -2.39 -2.18 -1.98 -1.77 -1.57 -1.37 -1.23 -1.08 -0.94 -0.79 -0.66 -0.52 -0.43 -0.39 -0.24 -0.14 -0.05 0.05 0.16 0.20 0.19 0.17 0.06 -0.04 -0.08 -0.04 0.11 0.24 0.25 0.32 0.33 0.36 0.49 0.51 0.54 0.61 0.60 0.65 0.66 0.82 0.93 1.12 1.42 1.89 2.20 2.29 2.37 2.42 2.25 2.15 2.17 2.15 2.14 2.07 1.98 1.33 -0.22 -0.58 -0.51 -0.52 -0.49 -0.57 -0.69 -0.80 -0.79 -0.43 0.28 0.47 0.42 0.36 0.11 -0.15 -0.25 -0.31 -0.40 -0.11 0.13 0.61 0.80 0.87 0.87 0.75 0.74 0.70 0.74 1.16 1.22 1.30 1.37 1.39 1.42 1.35 1.32 1.32 1.26 1.18 1.18 1.56 1.71 1.78 1.87 1.90 1.96 2.07 2.08 2.15 2.20 2.18 2.18 2.28 2.08 1.80 1.81 1.79 1.77 1.76 1.68 1.63 1.59 1.48 1.39 1.31 1.18 0.99 0.87 0.78 0.75 0.80 0.88 0.84 0.80 0.62 -9999.00 -9999.00 -9999.00 -9999.00 -9999.00 -9999.00 -9999.00 -9999.00 -9999.00 -9999.00 -9999.00 -9999.00 -9999.00 -9999.00 -9999.00 -9999.00 -9999.00 -9999.00 -9999.00 -9999.00 -9999.00 -9999.00 -9999.00 -9999.00 -9999.00 -9999.00 -9999.00 -9999.00 -9999.00 -9999.00 -9999.00 -9999.00 -9999.00 -9999.00 -9999.00 -9999.00 -9999.00 -9999.00 -9999.00 -9999.00 -9999.00 -9999.00 -9999.00 -9999.00 -9999.00 -9999.00 -9999.00 -9999.00 -9999.00 -9999.00 -9999.00 -9999.00 -9999.00 -9999.00 -9999.00 -9999.00 -9999.00 -9999.00 -9999.00 -9999.00 -9999.00 -9999.00 -9999.00 -9999.00 -9999.00 -9999.00 -9999.00 -9999.00 -9999.00 -9999.00 -9999.00 -9999.00 -9999.00 -9999.00 -9999.00 -9999.00 -9999.00 -9999.00 -9999.00 -9999.00 -9999.00 -9999.00 -9999.00 -9999.00 -9999.00 -9999.00 -9999.00 -9999.00 -9999.00 -9999.00 -9999.00 -9999.00 -9999.00 -9999.00 -9999.00 -9999.00 -9999.00 -9999.00 -9999.00 -9999.00 -9999.00 -9999.00 -9999.00 -9999.00 -9999.00 -9999.00 -9999.00 -9999.00 -9999.00 -9999.00
-17.61 -17.55 -17.48 -17.44 -17.41 -17.34 -17.26 -17.20 -17.18 -17.14 -17.10 -17.01 -17.00 -16.94 -16.88 -16.83 -16.82 -16.76 -16.73 -16.69 -16.61 -16.57 -16.53 -16.49 -16.48 -16.43 -16.36 -16.31 -16.27 -16.23 -16.19 -16.15 -16.09 -16.06 -16.01 -15.97 -15.94 -15.88 -15.81 -15.76 -15.73 -15.66 -15.64 -15.61 -15.55 -15.54 -15.48 -15.44 -15.39 -15.33 -15.32 -15.25 -15.20 -15.17 -15.13 -15.07 -15.01 -14.96 -14.94 -14.90 -14.87 -14.82 -14.78 -14.75 -14.70 -14.65 -14.60 -14.55 -14.52 -14.43 -14.38 -14.31 -14.28 -14.23 -14.17 -14.11 -14.05 -14.01 -13.95 -13.85 -13.79 -13.73 -13.66 -13.58 -13.51 -13.44 -13.38 -13.32 -13.23 -13.18 -13.06 -12.92 -12.81 -12.69 -12.57 -12.51 -12.42 -12.29 -12.15 -12.00 -11.89 -11.75 -11.61 -11.49 -11.38 -11.24 -11.08 -10.97 -10.73 -10.53 -10.28 -10.05 -9.81 -9.53 -9.27 -8.94 -8.45 -7.62 -6.43 -5.59 -4.88 -4.21 -3.97 -3.72 -3.53 -3.41 -3.34 -3.16 -3.03 -2.82 -2.70 -2.53 -2.33 -2.13 -1.92 -1.72 -1.52 -1.36 -1.20 -1.02 -0.86 -0.70 -0.60 -0.48 -0.40 -0.40 -0.34 -0.19 -0.07 0.02 0.11 0.16 0.16 0.10 0.22 0.11 -0.03 -0.04 0.02 0.11 0.16 0.26 0.26 0.33 0.42 0.45 0.48 0.49 0.44 0.49 0.69 0.71 0.83 0.91 0.94 1.44 1.58 1.86 1.95 1.96 1.75 1.74 1.69 1.73 1.79 1.78 1.85 1.62 0.39 -0.64 -0.62 -0.64 -0.72 -0.81 -0.81 -0.73 -0.29 0.10 -0.15 -0.29 -0.25 -0.30 -0.44 -0.46 -0.49 -0.30 -0.17 0.52 0.79 0.85 0.85 0.87 0.97 0.99 0.96 0.89 0.83 0.74 0.66 1.04 1.24 1.29 1.33 1.36 1.35 1.32 1.30 1.23 1.15 1.38 1.55 1.69 1.76 1.79 1.91 1.95 1.98 2.04 2.08 2.12 2.18 2.19 1.91 1.74 1.85 1.79 1.76 1.78 1.69 1.63 1.63 1.59 1.53 1.43 1.31 1.18 1.00 0.92 0.87 0.89 0.88 0.88 0.90 0.88 -9999.00 -9999.00 -9999.00 -9999.00 -9999.00 -9999.00 -9999.00 -9999.00 -9999.00 -9999.00 -9999.00 -9999.00 -9999.00 -9999.00 -9999.00 -9999.00 -9999.00 -9999.00 -9999.00 -9999.00 -9999.00 -9999.00 -9999.00 -9999.00 -9999.00 -9999.00 -9999.00 -9999.00 -9999.00 -9999.00 -9999.00 -9999.00 -9999.00 -9999.00 -9999.00 -9999.00 -9999.00 -9999.00 -9999.00 -9999.00 -9999.00 -9999.00 -9999.00 -9999.00 -9999.00 -9999.00 -9999.00 -9999.00 -9999.00 -9999.00 -9999.00 -9999.00 -9999.00 -9999.00 -9999.00 -9999.00 -9999.00 -9999.00 -9999.00 -9999.00 -9999.00 -9999.00 -9999.00 -9999.00 -9999.00 -9999.00 -9999.00 -9999.00 -9999.00 -9999.00 -9999.00 -9999.00 -9999.00 -9999.00 -9999.00 -9999.00 -9999.00 -9999.00 -9999.00 -9999.00 -9999.00 -9999.00 -9999.00 -9999.00 -9999.00 -9999.00 -9999.00 -9999.00 -9999.00 -9999.00 -9999.00 -9999.00 -9999.00 -9999.00 -9999.00 -9999.00 -9999.00 -9999.00 -9999.00 -9999.00 -9999.00 -9999.00 -9999.00 -9999.00 -9999.00 -9999.00 -9999.00 -9999.00 -9999.00 -9999.00
-17.53 -17.46 -17.42 -17.38 -17.32 -17.24 -17.19 -17.15 -17.10 -17.08 -16.98 -16.98 -16.92 -16.86 -16.81 -16.79 -16.73 -16.70 -16.68 -16.59 -16.55 -16.51 -16.47 -16.47 -16.40 -16.34 -16.30 -16.24 -16.21 -16.17 -16.13 -16.07 -16.04 -15.99 -15.95 -15.90 -15.85 -15.80 -15.74 -15.70 -15.64 -15.62 -15.61 -15.53 -15.51 -15.48 -15.42 -15.37 -15.32 -15.31 -15.25 -15.20 -15.15 -15.09 -15.03 -14.99 -14.94 -14.92 -14.88 -14.84 -14.80 -14.76 -14.74 -14.68 -14.63 -14.58 -14.55 -14.50 -14.42 -14.37 -14.30 -14.25 -14.20 -14.17 -14.10 -14.03 -13.99 -13.94 -13.84 -13.78 -13.71 -13.66 -13.56 -13.50 -13.40 -13.35 -13.28 -13.16 -13.15 -13.08 -12.95 -12.84 -12.74 -12.62 -12.54 -12.42 -12.35 -12.22 -12.06 -11.96 -11.82 -11.69 -11.54 -11.41 -11.28 -11.14 -11.03 -10.89 -10.75 -10.53 -10.30 -10.06 -9.78 -9.52 -9.24 -8.90 -8.43 -7.68 -6.60 -5.53 -4.81 -4.19 -3.92 -3.65 -3.46 -3.29 -3.21 -3.13 -2.98 -2.84 -2.67 -2.49 -2.27 -2.07 -1.87 -1.66 -1.48 -1.33 -1.18 -1.05 -0.82 -0.65 -0.52 -0.45 -0.38 -0.42 -0.41 -0.38 -0.28 -0.03 0.09 0.15 0.11 0.15 0.20 0.15 0.06 0.03 0.04 0.04 0.09 0.17 0.23 0.28 0.35 0.43 0.42 0.50 0.49 0.57 0.63 0.64 0.73 0.78 0.83 0.94 0.85 1.13 1.15 1.15 1.07 1.15 1.18 1.33 1.45 1.27 1.06 0.86 0.16 -0.37 -0.77 -0.85 -0.78 -0.90 -0.76 -0.47 -0.29 -0.30 -0.32 -0.34 -0.42 -0.49 -0.21 0.09 0.15 1.56 1.75 1.82 1.86 1.78 1.92 1.39 1.89 2.33 2.20 2.04 1.80 1.22 0.96 0.80 0.73 1.09 1.17 1.19 1.23 1.25 1.24 1.26 1.25 1.25 1.16 1.51 1.65 1.62 1.72 1.76 1.64 1.74 1.67 1.70 1.73 1.74 1.72 1.84 1.87 2.02 1.95 1.85 1.77 1.79 1.70 1.59 1.56 1.54 1.38 1.18 1.11 1.01 0.96 0.91 0.91 0.92 0.92 0.91 0.92 -9999.00 -9999.00 -9999.00 -9999.00 -9999.00 -9999.00 -9999.00 -9999.00 -9999.00 -9999.00 -9999.00 -9999.00 -9999.00 -9999.00 -9999.00 -9999.00 -9999.00 -9999.00 -9999.00 -9999.00 -9999.00 -9999.00 -9999.00 -9999.00 -9999.00 -9999.00 -9999.00 -9999.00 -9999.00 -9999.00 -9999.00 -9999.00 -9999.00 -9999.00 -9999.00 -9999.00 -9999.00 -9999.00 -9999.00 -9999.00 -9999.00 -9999.00 -9999.00 -9999.00 -9999.00 -9999.00 -9999.00 -9999.00 -9999.00 -9999.00 -9999.00 -9999.00 -9999.00 -9999.00 -9999.00 -9999.00 -9999.00 -9999.00 -9999.00 -9999.00 -9999.00 -9999.00 -9999.00 -9999.00 -9999.00 -9999.00 -9999.00 -9999.00 -9999.00 -9999.00 -9999.00 -9999.00 -9999.00 -9999.00 -9999.00 -9999.00 -9999.00 -9999.00 -9999.00 -9999.00 -9999.00 -9999.00 -9999.00 -9999.00 -9999.00 -9999.00 -9999.00 -9999.00 -9999.00 -9999.00 -9999.00 -9999.00 -9999.00 -9999.00 -9999.00 -9999.00 -9999.00 -9999.00 -9999.00 -9999.00 -9999.00 -9999.00 -9999.00 -9999.00 -9999.00 -9999.00 -9999.00 -9999.00 -9999.00
-17.44 -17.40 -17.35 -17.29 -17.22 -17.17 -17.12 -17.07 -17.05 -16.95 -16.96 -16.90 -16.84 -16.80 -16.77 -16.70 -16.67 -16.66 -16.58 -16.53 -16.48 -16.44 -16.44 -16.36 -16.31 -16.27 -16.21 -16.18 -16.15 -16.10 -16.06 -16.01 -15.97 -15.93 -15.89 -15.83 -15.79 -15.72 -15.68 -15.63 -15.62 -15.61 -15.52 -15.50 -15.46 -15.39 -15.35 -15.31 -15.30 -15.25 -15.19 -15.14 -15.09 -15.02 -14.96 -14.91 -14.88 -14.85 -14.82 -14.77 -14.74 -14.72 -14.67 -14.61 -14.56 -14.54 -14.48 -14.41 -14.35 -14.30 -14.24 -14.19 -14.14 -14.07 -14.00 -13.93 -13.91 -13.82 -13.77 -13.71 -13.67 -13.56 -13.49 -13.42 -13.32 -13.26 -13.14 -13.06 -12.98 -12.93 -12.90 -12.80 -12.69 -12.58 -12.47 -12.34 -12.23 -12.12 -12.04 -11.89 -11.76 -11.62 -11.47 -11.36 -11.20 -11.08 -10.93 -10.81 -10.67 -10.52 -10.30 -10.02 -9.77 -9.51 -9.21 -8.78 -8.22 -7.42 -6.64 -5.59 -4.65 -4.12 -3.81 -3.57 -3.38 -3.30 -3.14 -2.97 -2.90 -2.77 -2.62 -2.39 -2.22 -2.01 -1.81 -1.62 -1.46 -1.30 -1.16 -0.98 -0.77 -0.56 -0.52 -0.47 -0.37 -0.36 -0.45 -0.50 -0.56 -0.25 -0.03 0.10 0.20 0.26 0.28 0.25 0.28 0.16 0.08 0.13 0.17 0.18 0.22 0.24 0.30 0.33 0.33 0.43 0.55 0.58 0.58 0.75 0.79 0.73 0.76 0.77 0.72 0.80 0.86 0.90 0.96 0.98 1.06 1.28 1.35 0.54 0.30 -0.25 -0.87 -0.89 -1.09 -0.88 -0.70 -0.61 -0.41 -0.29 -0.33 -0.37 -0.36 -0.15 0.31 1.04 1.45 1.61 1.79 1.76 1.77 1.83 1.96 2.08 2.16 1.92 -9999.00 -9999.00 -9999.00 -9999.00 -9999.00 1.88 1.84 1.09 1.34 0.94 0.85 1.03 1.18 1.17 1.18 1.17 1.24 1.25 1.22 1.18 1.17 1.49 1.61 1.65 1.68 1.73 1.80 1.94 2.01 2.08 2.11 2.08 2.11 2.04 2.08 2.01 1.93 1.91 1.86 1.73 1.59 1.50 1.45 1.31 1.21 1.11 0.99 0.90 0.95 0.90 0.90 0.93 0.95 0.91 -9999.00 -9999.00 -9999.00 -9999.00 -9999.00 -9999.00 -9999.00 -9999.00 -9999.00 -9999.00 -9999.00 -9999.00 -9999.00 -9999.00 -9999.00 -9999.00 -9999.00 -9999.00 -9999.00 -9999.00 -9999.00 -9999.00 -9999.00 -9999.00 -9999.00 -9999.00 -9999.00 -9999.00 -9999.00 -9999.00 -9999.00 -9999.00 -9999.00 -9999.00 -9999.00 -9999.00 -9999.00 -9999.00 -9999.00 -9999.00 -9999.00 -9999.00 -9999.00 -9999.00 -9999.00 -9999.00 -9999.00 -9999.00 -9999.00 -9999.00 -9999.00 -9999.00 -9999.00 -9999.00 -9999.00 -9999.00 -9999.00 -9999.00 -9999.00 -9999.00 -9999.00 -9999.00 -9999.00 -9999.00 -9999.00 -9999.00 -9999.00 -9999.00 -9999.00 -9999.00 -9999.00 -9999.00 -9999.00 -9999.00 -9999.00 -9999.00 -9999.00 -9999.00 -9999.00 -9999.00 -9999.00 -9999.00 -9999.00 -9999.00 -9999.00 -9999.00 -9999.00 -9999.00 -9999.00 -9999.00 -9999.00 -9999.00 -9999.00 -9999.00 -9999.00 -9999.00 -9999.00 -9999.00 -9999.00 -9999.00 -9999.00 -9999.00 -9999.00 -9999.00 -9999.00 -9999.00 -9999.00 -9999.00
-17.38 -17.34 -17.27 -17.20 -17.14 -17.10 -17.05 -17.01 -16.93 -16.93 -16.88 -16.82 -16.77 -16.74 -16.68 -16.64 -16.62 -16.55 -16.49 -16.44 -16.42 -16.41 -16.34 -16.28 -16.23 -16.19 -16.15 -16.12 -16.07 -16.02 -15.98 -15.94 -15.91 -15.87 -15.81 -15.77 -15.71 -15.66 -15.62 -15.61 -15.59 -15.53 -15.50 -15.43 -15.39 -15.34 -15.29 -15.29 -15.25 -15.19 -15.14 -15.09 -15.02 -14.95 -14.89 -14.85 -14.83 -14.80 -14.75 -14.71 -14.70 -14.65 -14.59 -14.55 -14.52 -14.46 -14.40 -14.34 -14.29 -14.23 -14.17 -14.10 -14.04 -13.97 -13.89 -13.87 -13.78 -13.75 -13.69 -13.67 -13.57 -13.50 -13.41 -13.34 -13.25 -13.20 -13.11 -13.02 -12.92 -12.81 -12.78 -12.72 -12.63 -12.52 -12.40 -12.27 -12.13 -12.04 -11.94 -11.84 -11.70 -11.57 -11.44 -11.30 -11.12 -10.98 -10.85 -10.74 -10.58 -10.43 -10.28 -10.01 -9.77 -9.48 -9.14 -8.74 -8.09 -7.31 -6.40 -5.63 -4.83 -4.13 -3.70 -3.49 -3.36 -3.24 -3.08 -2.92 -2.80 -2.68 -2.52 -2.35 -2.15 -1.96 -1.76 -1.58 -1.43 -1.28 -1.13 -0.94 -0.72 -0.59 -0.53 -0.49 -0.38 -0.37 -0.43 -0.41 -0.46 -0.32 -0.11 0.07 0.27 0.37 0.42 0.37 0.42 0.29 0.25 0.22 0.22 0.26 0.24 0.25 0.26 0.31 0.37 0.37 0.47 0.52 0.53 0.57 0.61 0.66 0.63 0.64 0.71 0.66 0.76 0.84 0.84 0.89 1.04 1.14 0.98 0.16 -0.42 -0.94 -0.93 -0.86 -0.86 -0.69 -0.41 -0.34 -0.44 -0.22 0.13 0.54 0.94 1.36 1.79 1.96 -9999.00 -9999.00 -9999.00 1.92 1.98 2.13 2.18 2.20 -9999.00 -9999.00 -9999.00 -9999.00 -9999.00 -9999.00 -9999.00 -9999.00 -9999.00 1.42 1.38 1.42 1.48 1.42 1.36 1.27 1.25 1.23 1.18 1.07 1.10 1.17 1.14 1.09 1.49 1.64 1.77 1.77 1.81 1.95 1.94 1.90 1.88 1.88 1.85 1.88 1.89 1.86 1.88 2.00 1.98 2.02 1.72 1.61 1.53 1.39 1.32 1.16 1.03 0.94 0.90 0.88 0.92 0.92 0.93 0.96 -9999.00 -9999.00 -9999.00 -9999.00 -9999.00 -9999.00 -9999.00 -9999.00 -9999.00 -9999.00 -9999.00 -9999.00 -9999.00 -9999.00 -9999.00 -9999.00 -9999.00 -9999.00 -9999.00 -9999.00 -9999.00 -9999.00 -9999.00 -9999.00 -9999.00 -9999.00 -9999.00 -9999.00 -9999.00 -9999.00 -9999.00 -9999.00 -9999.00 -9999.00 -9999.00 -9999.00 -9999.00 -9999.00 -9999.00 -9999.00 -9999.00 -9999.00 -9999.00 -9999.00 -9999.00 -9999.00 -9999.00 -9999.00 -9999.00 -9999.00 -9999.00 -9999.00 -9999.00 -9999.00 -9999.00 -9999.00 -9999.00 -9999.00 -9999.00 -9999.00 -9999.00 -9999.00 -9999.00 -9999.00 -9999.00 -9999.00 -9999.00 -9999.00 -9999.00 -9999.00 -9999.00 -9999.00 -9999.00 -9999.00 -9999.00 -9999.00 -9999.00 -9999.00 -9999.00 -9999.00 -9999.00 -9999.00 -9999.00 -9999.00 -9999.00 -9999.00 -9999.00 -9999.00 -9999.00 -9999.00 -9999.00 -9999.00 -9999.00 -9999.00 -9999.00 -9999.00 -9999.00 -9999.00 -9999.00 -9999.00 -9999.00 -9999.00 -9999.00 -9999.00 -9999.00 -9999.00 -9999.00 -9999.00
-17.26 -17.25 -17.19 -17.12 -17.08 -17.02 -16.97 -16.90 -16.89 -16.84 -16.78 -16.74 -16.71 -16.66 -16.62 -16.58 -16.53 -16.47 -16.42 -16.39 -16.36 -16.31 -16.25 -16.20 -16.16 -16.13 -16.10 -16.05 -16.01 -15.96 -15.92 -15.89 -15.84 -15.78 -15.74 -15.69 -15.65 -15.60 -15.59 -15.58 -15.52 -15.47 -15.42 -15.36 -15.32 -15.26 -15.27 -15.24 -15.18 -15.13 -15.08 -15.02 -14.94 -14.89 -14.84 -14.80 -14.77 -14.72 -14.69 -14.68 -14.63 -14.58 -14.55 -14.51 -14.46 -14.39 -14.33 -14.29 -14.22 -14.16 -14.09 -14.03 -13.95 -13.91 -13.85 -13.76 -13.70 -13.68 -13.62 -13.61 -13.51 -13.42 -13.37 -13.26 -13.21 -13.11 -13.04 -12.97 -12.87 -12.77 -12.65 -12.61 -12.56 -12.46 -12.33 -12.21 -12.08 -11.94 -11.89 -11.77 -11.64 -11.50 -11.36 -11.24 -11.09 -10.94 -10.80 -10.61 -10.48 -10.33 -10.15 -10.01 -9.76 -9.46 -9.15 -8.63 -7.94 -7.21 -6.43 -5.70 -4.86 -4.07 -3.69 -3.47 -3.35 -3.21 -3.03 -2.92 -2.72 -2.56 -2.44 -2.29 -2.09 -1.90 -1.71 -1.55 -1.40 -1.24 -1.13 -0.91 -0.68 -0.55 -0.40 -0.34 -0.25 -0.31 -0.38 -0.44 -0.40 -0.31 -0.14 -0.03 0.21 0.38 0.46 0.51 0.48 0.54 0.37 0.38 0.40 0.36 0.30 0.29 0.25 0.31 0.27 0.34 0.36 0.45 0.36 0.40 0.44 0.49 0.47 0.59 0.19 0.20 0.23 0.24 0.22 0.23 0.32 0.45 0.64 -0.24 -0.94 -0.88 -0.86 -0.80 -0.59 -0.36 0.08 0.69 1.17 1.60 1.72 1.81 1.96 2.12 2.26 2.65 -9999.00 -9999.00 -9999.00 2.17 2.13 -9999.00 -9999.00 -9999.00 -9999.00 -9999.00 -9999.00 -9999.00 -9999.00 -9999.00 -9999.00 -9999.00 -9999.00 -9999.00 1.33 1.43 1.38 1.70 1.82 1.84 1.77 1.52 1.52 1.31 1.25 1.17 1.14 1.08 1.12 1.16 1.50 1.61 1.66 1.66 1.70 1.75 1.83 1.91 2.00 2.06 2.02 2.06 1.99 1.97 1.87 1.85 1.74 1.83 1.67 1.54 1.39 1.24 1.13 1.03 0.87 0.90 0.89 0.89 0.93 0.95 1.00 -9999.00 -9999.00 -9999.00 -9999.00 -9999.00 -9999.00 -9999.00 -9999.00 -9999.00 -9999.00 -9999.00 -9999.00 -9999.00 -9999.00 -9999.00 -9999.00 -9999.00 -9999.00 -9999.00 -9999.00 -9999.00 -9999.00 -9999.00 -9999.00 -9999.00 -9999.00 -9999.00 -9999.00 -9999.00 -9999.00 -9999.00 -9999.00 -9999.00 -9999.00 -9999.00 -9999.00 -9999.00 -9999.00 -9999.00 -9999.00 -9999.00 -9999.00 -9999.00 -9999.00 -9999.00 -9999.00 -9999.00 -9999.00 -9999.00 -9999.00 -9999.00 -9999.00 -9999.00 -9999.00 -9999.00 -9999.00 -9999.00 -9999.00 -9999.00 -9999.00 -9999.00 -9999.00 -9999.00 -9999.00 -9999.00 -9999.00 -9999.00 -9999.00 -9999.00 -9999.00 -9999.00 -9999.00 -9999.00 -9999.00 -9999.00 -9999.00 -9999.00 -9999.00 -9999.00 -9999.00 -9999.00 -9999.00 -9999.00 -9999.00 -9999.00 -9999.00 -9999.00 -9999.00 -9999.00 -9999.00 -9999.00 -9999.00 -9999.00 -9999.00 -9999.00 -9999.00 -9999.00 -9999.00 -9999.00 -9999.00 -9999.00 -9999.00 -9999.00 -9999.00 -9999.00 -9999.00 -9999.00
-17.10 -17.11 -17.08 -17.05 -17.00 -16.93 -16.88 -16.86 -16.80 -16.75 -16.71 -16.68 -16.63 -16.59 -16.55 -16.50 -16.44 -16.40 -16.36 -16.32 -16.28 -16.22 -16.17 -16.14 -16.10 -16.08 -16.04 -16.00 -15.95 -15.90 -15.86 -15.83 -15.76 -15.72 -15.67 -15.63 -15.59 -15.58 -15.56 -15.51 -15.45 -15.41 -15.36 -15.31 -15.26 -15.25 -15.23 -15.16 -15.12 -15.08 -15.02 -14.94 -14.88 -14.84 -14.80 -14.76 -14.71 -14.67 -14.66 -14.62 -14.56 -14.54 -14.50 -14.45 -14.38 -14.34 -14.29 -14.22 -14.14 -14.08 -14.02 -13.96 -13.92 -13.85 -13.77 -13.70 -13.65 -13.59 -13.57 -13.49 -13.42 -13.39 -13.28 -13.22 -13.12 -13.03 -12.95 -12.91 -12.81 -12.70 -12.62 -12.48 -12.43 -12.37 -12.29 -12.16 -12.02 -11.93 -11.80 -11.65 -11.55 -11.42 -11.33 -11.19 -11.00 -10.88 -10.71 -10.51 -10.39 -10.23 -10.07 -9.92 -9.71 -9.46 -9.11 -8.57 -7.98 -7.23 -6.57 -5.78 -5.01 -4.25 -3.74 -3.53 -3.32 -3.15 -3.04 -2.82 -2.52 -2.37 -2.24 -2.17 -2.04 -1.86 -1.68 -1.55 -1.39 -1.24 -1.08 -0.82 -0.61 -0.48 -0.32 -0.26 -0.18 -0.20 -0.29 -0.28 -0.34 -0.26 -0.19 0.06 0.26 0.35 0.47 0.58 0.64 0.71 0.63 0.60 0.54 0.61 0.53 0.24 0.24 0.21 0.20 0.27 0.27 0.29 0.22 0.27 0.30 0.32 0.25 0.36 -0.32 -0.37 -0.43 -0.41 -0.48 -0.52 -0.63 -0.85 -0.96 -1.03 -0.92 -0.79 -0.59 -0.17 0.50 1.08 1.51 1.74 1.95 2.15 2.29 2.40 2.47 2.58 2.77 3.00 3.04 -9999.00 -9999.00 2.43 2.27 -9999.00 -9999.00 -9999.00 -9999.00 -9999.00 -9999.00 -9999.00 -9999.00 -9999.00 -9999.00 -9999.00 -9999.00 -9999.00 -9999.00 1.63 1.47 1.53 1.81 1.86 2.00 2.15 2.30 2.21 1.99 1.74 1.31 1.24 1.20 1.00 1.15 1.23 1.33 1.37 1.61 1.78 1.70 1.83 1.95 2.01 2.00 2.11 1.97 1.71 1.84 1.60 1.69 1.73 1.73 1.67 1.56 1.42 1.29 1.13 1.03 0.87 0.85 0.89 0.90 0.95 0.98 0.87 -9999.00 -9999.00 -9999.00 -9999.00 -9999.00 -9999.00 -9999.00 -9999.00 -9999.00 -9999.00 -9999.00 -9999.00 -9999.00 -9999.00 -9999.00 -9999.00 -9999.00 -9999.00 -9999.00 -9999.00 -9999.00 -9999.00 -9999.00 -9999.00 -9999.00 -9999.00 -9999.00 -9999.00 -9999.00 -9999.00 -9999.00 -9999.00 -9999.00 -9999.00 -9999.00 -9999.00 -9999.00 -9999.00 -9999.00 -9999.00 -9999.00 -9999.00 -9999.00 -9999.00 -9999.00 -9999.00 -9999.00 -9999.00 -9999.00 -9999.00 -9999.00 -9999.00 -9999.00 -9999.00 -9999.00 -9999.00 -9999.00 -9999.00 -9999.00 -9999.00 -9999.00 -9999.00 -9999.00 -9999.00 -9999.00 -9999.00 -9999.00 -9999.00 -9999.00 -9999.00 -9999.00 -9999.00 -9999.00 -9999.00 -9999.00 -9999.00 -9999.00 -9999.00 -9999.00 -9999.00 -9999.00 -9999.00 -9999.00 -9999.00 -9999.00 -9999.00 -9999.00 -9999.00 -9999.00 -9999.00 -9999.00 -9999.00 -9999.00 -9999.00 -9999.00 -9999.00 -9999.00 -9999.00 -9999.00 -9999.00 -9999.00 -9999.00 -9999.00 -9999.00 -9999.00 -9999.00
-16.95 -16.94 -16.96 -16.96 -16.89 -16.86 -16.82 -16.76 -16.73 -16.68 -16.64 -16.58 -16.55 -16.53 -16.47 -16.42 -16.38 -16.33 -16.29 -16.25 -16.19 -16.15 -16.11 -16.08 -16.05 -16.02 -15.98 -15.93 -15.88 -15.83 -15.81 -15.75 -15.70 -15.66 -15.62 -15.58 -15.56 -15.54 -15.49 -15.44 -15.41 -15.35 -15.32 -15.26 -15.25 -15.23 -15.15 -15.12 -15.07 -15.01 -14.94 -14.87 -14.83 -14.80 -14.76 -14.70 -14.66 -14.63 -14.60 -14.54 -14.52 -14.48 -14.44 -14.38 -14.34 -14.28 -14.19 -14.13 -14.07 -14.01 -13.95 -13.90 -13.83 -13.78 -13.73 -13.66 -13.59 -13.55 -13.47 -13.41 -13.36 -13.28 -13.19 -13.13 -13.05 -12.97 -12.89 -12.80 -12.74 -12.68 -12.55 -12.43 -12.31 -12.25 -12.20 -12.09 -11.99 -11.89 -11.72 -11.60 -11.45 -11.34 -11.25 -11.10 -10.93 -10.80 -10.64 -10.47 -10.32 -10.14 -9.98 -9.80 -9.62 -9.47 -9.13 -8.66 -8.02 -7.38 -6.67 -5.96 -5.20 -4.49 -3.49 -3.39 -3.12 -2.99 -2.83 -2.59 -2.35 -2.15 -2.03 -1.92 -1.79 -1.73 -1.62 -1.48 -1.37 -1.18 -0.99 -0.79 -0.65 -0.45 -0.27 -0.18 -0.07 0.01 -0.06 -0.16 -0.20 -0.13 0.08 0.16 0.40 0.48 0.59 0.73 0.77 0.83 0.81 0.82 0.89 1.02 0.71 0.03 -0.03 -0.11 -0.16 -0.34 -0.47 -0.45 -0.48 -0.58 -0.67 -0.73 -0.78 -0.85 -0.91 -0.89 -0.90 -0.92 -0.94 -1.03 -1.01 -1.04 -0.97 -0.80 -0.65 -0.09 0.69 1.43 1.70 1.92 2.10 2.23 2.40 2.48 2.72 2.78 3.09 3.31 3.43 3.58 3.39 3.05 -9999.00 -9999.00 -9999.00 -9999.00 -9999.00 -9999.00 -9999.00 -9999.00 -9999.00 -9999.00 -9999.00 -9999.00 -9999.00 -9999.00 -9999.00 -9999.00 -9999.00 1.53 1.74 1.52 1.68 1.89 2.14 2.39 2.35 2.39 2.60 2.60 2.60 2.16 1.57 1.37 1.16 1.21 1.36 1.70 1.67 1.72 1.68 1.67 1.66 1.59 1.47 1.39 1.20 1.14 1.08 1.19 1.57 1.62 1.63 1.61 1.58 1.53 1.44 1.32 1.14 1.01 0.84 0.86 0.89 0.93 0.92 0.94 -9999.00 -9999.00 -9999.00 -9999.00 -9999.00 -9999.00 -9999.00 -9999.00 -9999.00 -9999.00 -9999.00 -9999.00 -9999.00 -9999.00 -9999.00 -9999.00 -9999.00 -9999.00 -9999.00 -9999.00 -9999.00 -9999.00 -9999.00 -9999.00 -9999.00 -9999.00 -9999.00 -9999.00 -9999.00 -9999.00 -9999.00 -9999.00 -9999.00 -9999.00 -9999.00 -9999.00 -9999.00 -9999.00 -9999.00 -9999.00 -9999.00 -9999.00 -9999.00 -9999.00 -9999.00 -9999.00 -9999.00 -9999.00 -9999.00 -9999.00 -9999.00 -9999.00 -9999.00 -9999.00 -9999.00 -9999.00 -9999.00 -9999.00 -9999.00 -9999.00 -9999.00 -9999.00 -9999.00 -9999.00 -9999.00 -9999.00 -9999.00 -9999.00 -9999.00 -9999.00 -9999.00 -9999.00 -9999.00 -9999.00 -9999.00 -9999.00 -9999.00 -9999.00 -9999.00 -9999.00 -9999.00 -9999.00 -9999.00 -9999.00 -9999.00 -9999.00 -9999.00 -9999.00 -9999.00 -9999.00 -9999.00 -9999.00 -9999.00 -9999.00 -9999.00 -9999.00 -9999.00 -9999.00 -9999.00 -9999.00 -9999.00 -9999.00 -9999.00 -9999.00 -9999.00 -9999.00
